# .PCD v0.7 - Point Cloud Data file format
VERSION 0.7
FIELDS x y z intensity
SIZE 4 4 4 4
TYPE F F F F
COUNT 1 1 1 1
WIDTH 115
HEIGHT 1
VIEWPOINT 0 0 0 1 0 0 0
POINTS 115
DATA ascii
-5.2227821 3.7233973 1.2369593 13.162251
-5.1396241 3.0319135 1.1503752 13.16475
-5.1808143 3.3027368 1.1846284 13.16375
-5.1088181 3.0114486 1.5777329 14.16475
-5.1944251 3.497457 1.2074637 13.163
-4.995883 3.8400972 1.2150757 13.16125
-5.1526227 3.3438904 1.6345989 14.163501
-5.0865164 3.7684972 1.6850029 14.16175
-4.6379266 3.8934345 1.1675025 13.16
-4.4858308 3.8944809 1.5803183 14.1595
-4.6866794 3.8660176 1.6165056 14.16025
-4.0157676 3.9813983 1.0898391 11
-4.1387944 3.9451206 1.4144363 12.5
-3.7733119 4.005095 1.0602814 11
-3.7604089 3.9889457 1.3356266 12.4
-3.4875991 4.0163884 1.0875704 11.71825
-3.4148638 4.0142498 1.3352857 13.051583
-3.1030097 4.0497193 1.1663318 12.384666
-3.0489161 4.0564713 1.3488066 13.2885
-2.5984728 4.136795 1.1169119 12
-2.5370204 4.1397491 1.2901267 13
-2.3190277 -2.667608 0.93721831 14.0245
-2.2345481 4.2026749 1.0878133 13.149
-2.2322676 4.1965661 1.2629055 14.149
-1.8671099 4.1497226 0.7551195 11
-1.8744842 4.1259098 1.0909191 12.715833
-1.9118875 4.1182103 1.205523 14.1475
0.092481919 -3.5384996 0.87271065 13.54575
1.1255633 -4.0238252 0.65611714 12.017667
0.93109369 -3.8922691 0.62826318 12.01725
1.109581 -4.0240002 1.0388731 13.573167
0.9695996 -3.9064023 0.99032754 13.490381
1.5406504 -3.6400771 0.34420732 10
1.5590336 -3.5888517 0.34071413 10
1.3450127 -3.8672726 0.57079065 11.5
1.5690994 -3.5575304 0.61053228 11.685666
1.2266227 -4.010047 1.0352957 13.5
1.3901519 -3.7880816 0.99605078 13.5
1.5556138 -3.5734093 0.96150482 13.5114
1.969907 -3.501699 0.77252173 12
1.7772652 -3.6439247 1.0005853 13.558
1.933583 -3.5055747 0.9817155 13.473083
2.3742819 -2.8799732 -0.062838197 7
2.3294976 -2.9948659 0.14831854 8.625
2.2570581 -3.1084259 0.54843754 11.404762
2.085845 -3.2988234 1.0353611 14
2.3107629 -3.000984 0.95821559 13.666667
2.4291165 -2.7953823 -0.062334195 7
2.7361865 -2.3515003 -0.060678028 7
2.641366 -2.5932879 0.23603429 9.333333
2.4828413 -2.8175716 0.43147981 10.8
2.6228569 -2.6211686 0.76479244 12.388889
2.7931182 0.90375769 0.72176838 13.5
2.5609252 -2.6597691 0.97971958 14
2.8545442 -2.2282412 -0.060940333 7
3.0901196 -1.9098134 -0.10305679 6.6666665
2.8840144 -2.266818 0.26185408 9.5500002
3.1353564 -1.9313365 0.25649726 9.5
2.9283388 0.78982675 0.26342919 10.04875
2.9162581 0.81469381 0.2101818 9.5
2.8901289 -2.2480676 0.78233933 12.6
3.1292849 -1.9332858 0.77273583 12.5
3.1314664 0.59916979 0.61954391 12.211125
2.8807697 0.84878939 0.60027528 12.388889
2.8651447 -2.2533162 0.96663958 14
3.0741029 -1.9733531 0.9684937 14
3.1426501 0.50982434 0.8423624 14.04725
3.5704818 -1.2439953 -0.45648366 4
3.4836712 0.30187061 -0.51914203 3.2222223
3.2254767 -1.7353051 -0.12497992 6.5
3.4528465 -1.4394319 -0.23607098 5.6666665
3.4375665 0.32721549 -0.14714831 6.25
3.3221874 -1.6711059 0.25916061 9.5
3.446609 -1.4912186 0.13069491 8.5
3.4524834 0.34534994 0.22307143 9.3555555
3.3080246 0.47066706 0.28841227 10.031667
3.3792627 -1.6015049 0.75202733 12.25
3.5285804 -1.3930649 0.61820525 11.833334
3.4102988 0.3585552 0.7565223 12.8
3.2710819 0.48862118 0.52500618 11.666667
3.260989 -1.7241505 0.90938121 13.5
3.4393871 -1.4829735 0.99332327 14
3.5274072 0.27117479 0.87106782 13.5
3.7714005 -0.97306144 -0.52451599 3.6066666
3.9012804 -0.57262129 -0.58462423 3.2222223
3.9447284 -0.32269692 -0.68837529 2.5
3.753859 0.1237037 -0.57032967 3.125
3.6155024 -1.2173011 -0.26224598 5.5
3.7449429 -1.0036587 -0.18546957 6.0999999
3.9029818 -0.55343145 -0.15153728 6.375
3.9548421 -0.345319 -0.13554899 6.5
3.7500937 0.12346179 -0.13769384 6.4285712
3.6373084 -1.2402582 0.13358934 8.5
3.8176911 -0.98372835 0.14377733 8.5500002
3.9323058 -0.5343256 0.15545447 8.625
3.8796659 0.052088864 0.15167086 8.625
3.6379182 -1.2501391 0.57043451 11.5
3.8214149 -0.99976569 0.50424182 11.083333
3.9238966 -0.48921058 0.55326909 11.433332
3.7776809 0.13109376 0.52770263 11.303572
3.6198497 -1.231634 1.0137364 14
3.8325095 -0.94616091 1.0287596 13.875
3.890238 -0.47996312 0.97492307 13.555556
3.73717 0.12745775 0.99120563 14
4.0304003 -0.62803489 -0.56461948 3.5
4.062737 -0.11648545 -0.58147639 3.375
4.0310187 -0.63697249 -0.17516738 6.25
4.0790038 -0.1239635 -0.16327073 6.3333335
4.0650496 -0.64526486 0.17954585 8.75
4.1091633 -0.12715255 0.1384273 8.4666662
4.0395885 -0.68842137 0.5532828 11.375
4.0944643 -0.14017971 0.55657524 11.4
4.0320334 -0.66994351 1.0084336 13.5
4.0951715 -0.14246936 1.0109624 13.5
6.9168572 1.2204436 1.8698326 15.095
