# .PCD v0.7 - Point Cloud Data file format
VERSION 0.7
FIELDS x y z intensity
SIZE 4 4 4 4
TYPE F F F F
COUNT 1 1 1 1
WIDTH 166
HEIGHT 1
VIEWPOINT 0 0 0 1 0 0 0
POINTS 166
DATA ascii
-5.2202029 2.9053001 0.62545061 10.6655
-5.2186871 3.4735436 0.76494062 11
-5.2583942 3.8374279 0.79445189 11
-5.2121682 2.8990467 0.93856579 12.1655
-5.2374778 3.7956588 1.0182594 12
-5.2022357 3.534246 1.2126968 13
-5.226027 3.7429595 1.2396553 13
-5.0679808 2.3593287 0.29004329 9.1674995
-5.1654716 3.2962563 0.74770045 11
-4.985394 3.8558924 0.76909888 11
-5.1561561 3.1271136 1.0559405 12.5
-5.1888137 3.4113593 1.0650202 12.4
-5.0518193 3.8004982 1.0319095 12.166666
-5.1272492 3.1409311 1.5997038 14
-5.0028305 3.8419304 1.2163444 13
-5.157999 3.4062078 1.6448841 14
-5.1187143 3.7639465 1.691106 14
-4.5695882 3.8935821 0.65395117 10.415
-4.6099329 3.9013512 1.0573698 12.5
-4.6006856 3.8722467 1.5999198 14
-4.0108304 4.0086412 0.29420364 9.1575003
-4.2075839 3.9735572 0.63018537 10.125
-4.075336 4.0015163 0.4987736 9
-4.3335886 3.9407904 1.025793 12.5
-4.1858087 3.9374895 1.4217757 13.5
-3.7157395 4.0140576 0.73189121 11.333334
-3.7631402 3.988029 1.3358097 13.4
-3.269664 3.1671832 0.23597875 9.158
-3.4831021 4.088109 0.56182915 9.833333
-3.4723651 4.0060258 1.3247 13.571428
-2.9351237 4.1376743 -0.22352079 5.2222219
-2.9464195 4.1451011 0.17716236 7.5
-3.062253 4.1050549 0.62044734 10.644444
-3.1852548 4.0497317 1.1780249 13
-2.9981086 4.0625391 1.3427292 14
-2.7703149 4.1543365 -0.084701046 6
-2.557795 2.225719 0.11854782 8.6595001
-2.598278 2.4240243 0.18399224 9.1584997
-2.5680249 4.208395 0.25588843 8
-2.6173995 4.1783295 0.57960743 10.5
-2.6547379 4.1293302 1.1223965 13
-2.5044997 4.1400495 1.2854167 14
-2.1265306 4.2034407 -0.44753659 3.75
-2.1914279 3.572469 -0.14378518 5.5
-2.1357913 3.6990769 -0.22088651 5
-2.1300385 4.206799 -0.16172221 5.5
-2.2085288 2.2706399 0.17890692 9.2682228
-2.1816347 2.5107086 0.1434968 8.9055004
-2.2233284 3.7129698 0.076675393 7.3833885
-2.1875765 4.2449389 0.19358894 7.6666665
-2.3304684 -2.5009375 0.77921653 13.0235
-2.2122705 4.2300248 0.61111903 10.833333
-2.3186805 -2.6679101 0.93721831 14.0245
-2.2488701 4.1990757 1.0885419 13
-2.2280717 4.1954489 1.2619576 14
-1.9582999 4.1851344 -0.5596379 3
-1.8475479 4.2322493 0.1608918 7.6275001
-1.8139925 4.2075191 0.61783183 11.248631
-1.8340186 4.20327 1.0715665 13.163928
-1.8227196 4.2199955 1.220831 14.024583
-1.5024085 3.5121551 -0.52968264 2.5
-1.3715836 3.6857972 -0.61613965 2
-1.5422176 3.4403481 -0.25982901 4.5
-1.2545098 3.7544034 0.20504881 9.1442499
-1.5395705 4.1231904 0.21192248 7.875
-1.320815 3.9902275 0.43894336 10.25
-1.5011644 4.1185045 0.59102857 11.25
-1.3681997 3.9939582 1.0260245 13.4
-1.554347 4.1345124 1.0904669 13.5
-1.0237726 3.1561453 -0.45828265 3
-1.0477949 3.1411748 -0.23978311 4.6666665
-1.0072788 3.2124572 -0.28894064 5
-1.1169767 3.5235653 0.10789097 8.4771662
-1.0443665 3.7266572 0.17089944 8.7906675
-1.0508553 3.7817194 0.55848289 11.542964
-0.83341128 3.5952058 0.97806031 14.1415
-1.0615466 3.7684238 0.97981018 13.6287
0.092961669 -3.5433216 0.87400311 13.54575
1.1086177 -4.0249667 0.65557027 12.017583
0.91033673 -3.8972547 0.62823707 12
1.1086882 -4.0168414 1.0351245 13.554875
0.95643276 -3.9167156 0.97585434 13.388124
1.5429271 -3.6351748 0.34391624 10
1.2196929 -4.0353713 0.66199011 12
1.3422295 -3.8694615 0.57087177 11.5
1.5603904 -3.5576026 0.61614734 11.833333
1.2274079 -4.0077667 1.1124735 14
1.325685 -3.8705809 1.0051966 13.466667
1.570568 -3.5549328 0.98289061 13.666667
1.9622462 -3.5240684 0.77550304 12
1.7788682 -3.6467366 1.00139 13.558
1.9389404 -3.4955232 0.98626655 13.51475
2.3725772 -2.88258 -0.062859789 7
2.334214 -3.0040364 0.14863624 8.625
2.0364749 -3.3897624 0.69131523 12
2.2638173 -3.0973604 0.54265356 11.399999
2.0901983 -3.2924178 0.96214235 13.5
2.3087559 -2.9988325 0.95742327 13.666667
2.4292452 -2.8085577 -0.062514171 7
2.460387 -2.7731249 -0.062406145 7
2.7587883 -2.3552754 -0.061023552 7
2.632062 -2.6112094 0.23211531 9.3000002
2.4825668 -2.8149977 0.43118981 10.8
2.6217406 -2.6189353 0.76433092 12.388889
2.7835987 0.89693981 0.74587768 13.7995
2.5615237 -2.6581922 0.97948623 14
2.8542531 -2.2338879 -0.061004709 7
3.127125 -1.8667346 -0.14535399 6.333333
2.8767912 -2.2804577 0.25553727 9.5
3.1355042 -1.9368995 0.25659302 9.5
2.884872 -2.2508533 0.78182268 12.6
3.1296899 -1.9311663 0.77259916 12.5
3.0902631 0.66618973 0.69297057 12.7988
2.8268108 0.88030559 0.64395535 12.741241
2.8622718 -2.2575054 0.96669996 14
3.0742285 -1.9732583 0.9684937 14
3.0487492 0.68690401 0.82685333 14.048313
3.5984075 -1.2530373 -0.46012414 4
3.5328054 0.29981861 -0.56878668 2.875
3.2302911 -1.7361128 -0.12519215 6.5
3.4519749 -1.4496514 -0.19300671 6
3.527108 0.29979995 -0.18209018 6
3.3315136 -1.6589462 0.1083783 8.333334
3.5142508 -1.4118073 0.1317506 8.5
3.5262702 0.32151458 0.12295186 8.5
3.4218383 0.40620756 0.29967159 10
3.3415573 -1.6595349 0.41084817 10.666667
3.4506733 -1.5050303 0.60701257 11.625
3.4449484 0.37457117 0.57037127 11.625
3.2977743 0.4665387 0.6264655 12.031167
3.2606268 -1.7241321 0.90929717 13.5
3.4586961 -1.4532105 0.9483965 13.666667
3.4814019 0.32096598 0.88211042 13.666667
3.3470209 0.41065067 0.89276654 14.0935
3.7786407 -0.97544754 -0.52099216 3.6400001
3.9196286 -0.57371974 -0.54500353 3.5238097
3.9564157 -0.33133212 -0.69055015 2.5
3.8135116 0.092025533 -0.62608689 2.7916667
3.6187272 -1.2270356 -0.26290399 5.5
3.7506986 -1.0054113 -0.18584345 6.0999999
3.9097733 -0.55234075 -0.1347751 6.5
3.9382432 -0.39968112 -0.15798037 6.3333335
3.8191152 0.085181572 -0.16418405 6.25
3.639544 -1.2452525 0.13377069 8.5
3.8284512 -0.97990781 0.13744177 8.5
3.9168093 -0.48977587 0.16500804 8.6999998
3.8324373 0.10800949 0.16662465 8.75
3.6371951 -1.2487019 0.5702548 11.5
3.8206642 -0.99611717 0.54108918 11.3
3.9291477 -0.5417518 0.52347922 11.226666
3.7610745 0.14915346 0.60451889 11.6875
3.6200533 -1.2311343 1.0137365 14
3.8114903 -0.97142369 1.0066149 13.75
3.9100108 -0.55924392 0.99271023 13.625
3.9694924 -0.35776603 0.98301691 13.5
3.7387156 0.13567804 0.99169803 14
4.0331535 -0.63142443 -0.60133237 3.25
4.0710487 -0.11550952 -0.58254641 3.375
4.033565 -0.63406539 -0.17512336 6.25
4.085989 -0.12297794 -0.16375507 6.3333335
4.0484996 -0.67349094 0.16700618 8.666667
4.0788465 -0.11001744 0.20679279 8.9499998
4.0333767 -0.66694486 0.5935992 11.666667
4.0866466 -0.13115354 0.55215305 11.375
4.0384674 -0.64680946 1.0088367 13.5
4.0917091 -0.13637805 1.0099834 13.5
