# .PCD v0.7 - Point Cloud Data file format
VERSION 0.7
FIELDS x y z intensity
SIZE 4 4 4 4
TYPE F F F F
COUNT 1 1 1 1
WIDTH 796
HEIGHT 1
VIEWPOINT 0 0 0 1 0 0 0
POINTS 796
DATA ascii
-6.427372 -0.61941946 0.73796999 5
-6.2985163 -0.27242523 0.3040784 3
-6.1285954 0.014468615 0.29911706 3
-6.1713715 -0.18398909 0.63370031 4.625
-6.0877557 0.0061158072 0.5019058 4
-6.2786345 -0.52109128 1.0081502 6.333333
-6.1321082 -0.26987961 0.96944118 6.25
-6.2382336 -0.63944232 1.4716942 8.5
-6.0387769 -0.29701868 1.4271744 8.5
-6.1029692 -0.54484516 1.8829566 10.5
-6.0212421 -0.56598753 2.335139 12.6
-6.0608296 -0.76120985 2.6870613 13
-5.8079219 -0.063820109 0.08605203 2
-5.7479105 0.19407342 0.21591212 5.625
-5.7378006 0.63632333 0.27907836 3
-5.7301884 0.19415754 0.49108985 8
-5.7157102 0.56324375 0.57939744 4.5555553
-5.7898889 -0.014423974 1.0488496 7.5064998
-5.702858 0.22871542 0.94357622 9.083334
-5.6183939 0.49921277 1.040485 7
-5.8820729 -0.032609832 1.3925107 8.5
-5.6617818 0.19315398 1.3508735 11.366667
-5.8488379 -0.11643219 1.8067167 10.5
-5.6544371 0.16181424 1.7624359 10.5625
-5.8326716 -0.22683336 2.2387977 12.5
-5.7434316 0.0046371752 2.0976028 12
-5.6950316 -0.16167249 2.680346 13.666667
-5.9509315 -0.6749258 2.8854051 14
-5.2491965 -0.11749624 -1.0103838 2
-5.3648205 0.13293703 -0.96816629 2.3333333
-5.3153682 -0.20311132 -0.5982396 4.25
-5.4616413 0.13954043 -0.71019137 3.75
-5.2408462 -0.64853698 -0.27285448 6
-5.3936205 -0.16944523 -0.18524972 6.5
-5.5244617 0.14286363 -0.18966086 6.5
-5.2957973 -0.44297877 0.3667458 3.6666667
-5.399807 -0.27383152 0.17870264 5.5
-5.5852013 0.14588319 0.098822281 8
-5.3429737 -0.4023304 0.74805951 11.5
-5.4253473 -0.26358145 0.56901407 10.5
-5.5845919 0.14294113 0.68127406 11
-5.5232482 0.7960577 0.71791315 5.4000001
-5.4673381 0.9458192 0.63535178 5
-5.266995 -0.55301088 0.83308882 12.003
-5.5871263 0.14202909 0.87918574 12
-5.4349222 0.78928894 1.1045444 7.5
-5.4045939 0.89537948 0.90918452 6.5
-5.2854118 -1.6685287 1.4967868 11.021749
-5.2872128 -0.57371765 1.3399984 13.625
-5.4581013 -0.19881131 1.3507582 13.5
-5.5031147 0.6125139 1.3193427 8.5476189
-5.3494568 0.83071959 1.4714478 9.5
-5.2574396 -1.6729451 1.6879745 12.021749
-5.396564 0.6160509 1.8067216 11.133333
-5.2012334 0.86719143 1.9209737 12
-5.3254447 0.54624367 2.3736789 13
-5.5439329 0.12120781 2.5732796 13.5
-5.3315673 0.46386269 2.5395756 13.75
-5.1699018 -0.33232975 -0.90354455 2.5
-4.8106713 -1.633474 -0.6154623 4
-4.8207893 -1.415517 -0.21561024 6.25
-4.8988004 -1.0167353 -0.25837922 6
-5.0830717 -0.60362512 -0.2133745 4.3333335
-4.8273478 -0.26161805 -0.093326904 1
-4.9999838 0.16200846 -0.092019878 1
-4.8109498 -1.5892193 0.17633264 8.5
-4.8612976 -0.62883973 0.127837 2.4375
-4.8293324 -1.6106981 0.44397333 10
-4.82939 -1.3755372 0.78966743 12.002666
-4.9111614 -1.0586528 0.7901172 12
-4.8423157 -0.60444182 0.50227481 4.75
-4.8551188 -1.418254 1.0354034 12.666667
-4.9889474 -0.9274894 1.0191371 12.555556
-5.1376886 -0.76322496 0.93825281 12.333333
-4.8997464 -0.27008057 1.1224518 14.044125
-4.8014917 -1.840836 1.3539515 13.0535
-4.9209189 -1.4017345 1.3690075 13.257125
-4.9773607 -0.92952168 1.3460687 14
-5.0275073 -0.79667085 1.3528538 14
-5.0919046 -1.3879435 1.6270046 12.0205
-4.8012652 1.6783463 1.7998846 12.00325
-5.1931286 0.77537185 2.3253105 13
-5.1400371 1.0150291 2.131465 12.7035
-4.9069967 1.3025751 2.1145606 12.416667
-5.0403733 -3.5816367 2.4184039 14.0305
-5.1802516 0.71002167 2.5339036 14
-5.0396943 0.94496351 2.4801924 14
-4.8675961 1.2451525 2.4203351 14
-4.6533203 -1.85574 -0.96405423 2
-4.5933928 -0.63237965 -1.0583667 1
-4.6615872 -0.19567312 -1.0651001 1
-4.5646987 -2.0799539 -0.55605054 4.3000002
-4.7151036 -1.8029515 -0.56882119 4.25
-4.4248333 -2.1495757 -0.1685237 6.5
-4.64926 -1.8964188 -0.14343958 6.6666665
-4.7586517 -1.3676512 -0.25564057 6
-4.6379995 -0.77639544 -0.10745845 1
-4.7829814 -0.0044775922 -0.088708207 1
-4.5724192 2.5433757 -0.046305496 2
-4.5200377 -2.1470385 0.20329891 8.666667
-4.6896949 -1.8497597 0.16702648 8.4499998
-4.6134319 -1.2827042 0.24832404 9.0039997
-4.5840893 -0.97322977 0.2832804 9.2560005
-4.6414032 -0.70001227 0.23188393 6.052125
-4.5179462 2.595083 0.19277842 3.375
-4.4482002 -2.4026787 0.79480565 12
-4.5094776 -2.2173138 0.57802022 10.8
-4.7061152 -1.8331902 0.56503648 10.708333
-4.7073646 -1.283021 0.64052057 11.25
-4.6252356 -0.98190606 0.46702603 10.339334
-4.6621099 -0.68604207 0.57105607 6.7510624
-4.4576516 -3.8341985 1.1060246 9
-4.4032531 -2.4957182 1.0660436 12.5
-4.5588779 -2.178581 1.1553347 13.00625
-4.7090907 -1.8464758 1.1568202 13
-4.7476916 -1.3286866 1.1268333 13
-4.6085496 -0.66179687 0.99137992 9.5132504
-4.534699 -0.23256668 0.89754391 13.243899
-4.5121398 0.13366422 0.93691587 14.0415
-4.4683976 -3.808265 1.4204993 10.5
-4.5341334 -2.1844676 1.3378839 14.004167
-4.6939421 -1.8367442 1.3401892 14
-4.7921338 -1.3339124 1.3218361 14
-4.5875421 -0.64439285 1.3731424 10.4
-4.4095049 -3.8047869 1.7174886 12
-4.4831161 -0.6562888 1.7778711 12.5
-4.6424913 1.8065902 1.9661771 12
-4.5278974 -3.7472105 2.0161624 13.03275
-4.4629707 -3.4755712 2.1750033 14.03175
-4.7415133 1.5284387 2.180795 13
-4.5242033 1.8732233 2.2218885 13.5
-4.3376279 -2.0536633 -0.92276812 2
-4.231225 -1.7753266 -1.0477053 1
-4.0823593 -0.55264574 -0.97278732 0.77777785
-4.1700082 -0.2955181 -0.95202386 1
-4.3593845 -2.1012433 -0.67157185 3.5
-4.1171412 -0.61500561 -0.58189476 3.4749999
-4.2238231 -0.35284176 -0.58766425 3.5
-4.2137675 -0.51308417 -0.13096081 5.125
-4.2626157 -0.34064341 -0.22195661 4
-4.3387151 0.08054179 -0.22565766 0
-4.20227 2.7400868 -0.25459203 1
-4.1556177 2.8183496 -0.26534459 1
-4.1975517 -0.98846126 0.098207034 8.1494999
-4.1973724 -0.57259899 0.14775547 8.5010004
-4.2411528 -0.39651263 0.1859936 8.75
-4.3497491 2.874017 0.13669521 3.25
-4.1767507 -4.0951815 0.57770014 6.6999998
-4.1475635 -3.9482927 0.74060297 8
-4.2762108 -0.93320113 0.59452075 11.4013
-4.1720943 -0.54896188 0.53597659 11.182792
-4.1934781 -0.24762069 0.64481091 12.028999
-4.1754332 0.26503947 0.78114408 13.707084
-4.3993921 2.6176047 0.55510747 5.5
-4.2350388 2.8690798 0.55379456 5.6666665
-4.1223536 -4.0647597 1.0156395 9
-4.2568221 -3.8996787 1.0428091 9.5500002
-4.0372963 -3.2791831 1.1423975 12.75
-4.1992917 -2.9204617 1.1698191 13.009001
-4.3197956 -2.6502886 1.0682591 12.5
-4.3728752 -0.77591944 1.1237059 14.048
-4.2724509 2.6552691 1.0663569 8.5
-4.1308718 2.9036326 0.9370532 7.9166665
-4.016695 -4.1034226 1.2977184 10.5
-4.2319026 -3.8573058 1.4285522 11.413977
-4.0443397 -3.2178044 1.3737489 14
-4.1542125 -2.9920552 1.3614711 14.005917
-4.3249311 -2.6243699 1.3451898 14
-4.3208008 -0.78928548 1.4632062 11.5
-4.2790132 2.5312831 1.4273114 10.5
-4.0868864 2.8245389 1.4230245 10.666667
-4.1594982 -4.0093994 1.6473508 12
-4.2530394 -3.8128862 1.8525226 12.666667
-4.1793046 -0.80972004 1.8153981 13
-4.3378839 -0.74870545 1.8880293 13
-4.3478589 2.3453834 1.714498 12
-4.216938 2.5495913 1.6891071 12
-4.046535 2.8106213 1.6583735 12
-4.2118125 -3.8028059 2.1220777 13.57619
-4.321074 -0.7345981 2.0588701 14
-4.2710404 2.3054817 2.1651566 13.5
-4.1062355 2.5937235 2.1040268 13.333333
-3.6607342 -3.9230361 -0.93476367 2.5
-3.7903786 -1.2842447 -0.96106058 0.66666669
-3.8784428 -1.024747 -0.98801112 0.5
-3.9902306 -0.76536483 -0.97533852 0.66666669
-3.6607862 -4.1014047 -0.64618921 4.1111112
-3.7766693 -3.8555682 -0.5293619 4.6666665
-3.8519218 -1.2342777 -0.57868165 3.375
-3.9442806 -1.0284784 -0.56583798 3.5
-3.6703088 -4.0182552 -0.21815881 6.3333335
-3.8040133 -3.7456162 -0.19317289 6.4444447
-3.9282112 -1.174255 -0.18670999 6.1666665
-3.6819601 -4.0006509 0.18925743 8.5
-3.7666814 -3.8331394 0.18686533 8.5
-3.7246895 -1.2490382 0.248436 7.1627784
-3.91271 -1.1531129 0.21049961 8.8683338
-3.6649206 -0.51804155 0.38670465 11.046249
-3.7565186 -4.2071652 0.60175163 7.8499999
-3.740032 -3.8670156 0.62588692 10.833333
-3.7758098 -2.634675 0.78500044 10.06025
-3.7970219 -1.2648722 0.49931774 9.1866674
-3.8408277 -1.1248507 0.50965124 10.757312
-3.8452156 -0.043807499 0.5524472 12.0425
-3.8438585 0.23650356 0.60127366 12.873667
-3.7780795 -4.2019515 1.0083101 9.2066669
-3.8001306 -3.7678056 0.93610829 12
-3.9096591 -3.4485109 1.0294554 12.140332
-3.7789364 -2.936291 0.98631275 9.6797161
-3.6423526 -1.120929 0.88367683 12.666666
-3.7118263 2.9897809 0.95225888 9.045083
-3.7242641 -4.179368 1.4056751 11.466667
-3.8383369 -3.6877127 1.35569 13.71075
-3.8775146 -3.3511734 1.3708712 12.698801
-3.6938205 -2.8952034 1.3122073 11.5
-3.9834325 2.9794493 1.405103 10.666667
-3.7190671 3.222301 1.4391228 12.1725
-3.7837317 -4.150456 1.9560264 13
-3.718071 -3.4885404 1.7559078 13.065
-3.6324663 -2.9432619 1.7238041 13
-3.7821391 3.0764174 1.8365587 12.5
-3.621037 3.2640269 1.7110826 12
-3.7886658 -4.0837603 2.1675453 13.833333
-3.9111075 -3.8778613 2.1001487 14.017375
-3.9727435 2.7518084 2.2069476 14
-3.8195579 3.001734 2.1869569 14
-3.2143414 -4.941308 -0.9235937 3
-3.335932 -4.6930771 -0.90190721 3
-3.4077826 -4.0261183 -1.0153018 2
-3.5164287 -1.7131966 -1.0361919 0
-3.2813647 -4.905942 -0.63403058 4.4000001
-3.4405031 -4.56954 -0.66597581 4.1388888
-3.5638447 -4.28966 -0.4816581 5
-3.3111317 2.7094886 -0.43069941 0
-3.2357099 -4.9582667 -0.23855285 6.333333
-3.325736 -4.6852002 -0.13080373 6.833333
-3.542676 -4.28409 -0.19101611 6.5
-3.5149603 -0.98391449 -0.18452661 0.33333334
-3.3065372 -0.6986686 -0.13221747 0.56666666
-3.4458194 2.3671734 -0.15768363 1.5
-3.4359853 2.491437 -0.28495508 0.75
-3.2473621 -4.87394 0.18013798 7
-3.3232009 -4.6117482 0.25568771 6.7753568
-3.5618334 -4.2405586 0.19278921 8.5
-3.4282572 -2.1336608 0.32335776 5.25
-3.2264485 -1.7722774 0.34666559 5.5
-3.4751859 -1.3879783 0.29103407 7.5174165
-3.4576206 -1.0037835 0.17495523 5.4733233
-3.3488922 -0.70521331 0.22419585 6.1439877
-3.4567411 -0.27454728 0.31242564 11.044374
-3.4546311 0.12428941 0.38010818 11.398071
-3.3322022 2.295392 0.19229101 5.9666667
-3.3009539 2.5261319 0.29112127 4.811111
-3.2425072 -4.9009309 0.61990464 9.166667
-3.3699646 -4.5649056 0.56331474 8.2506895
-3.5457857 -4.3184681 0.61799663 9.166666
-3.4964221 -3.1629219 0.5947426 8.03475
-3.2443812 -2.7477179 0.55159295 8.0337505
-3.3553987 -2.2133598 0.64820886 8.5044527
-3.4291599 -1.4042691 0.62490916 8.8435831
-3.381366 -0.95817989 0.65319091 9.2020187
-3.2707863 -0.68358624 0.68257332 12.715698
-3.2172868 2.1861393 0.5417974 11.5
-3.3037176 2.5145826 0.61918491 7.314208
-3.2806339 2.9185359 0.76970214 8.9716005
-3.3591955 3.2775664 0.7918328 8
-3.2412663 -4.9220262 1.0835218 12.75
-3.2807171 -4.5396042 0.96044499 9.583333
-3.436403 -4.2496572 1.020175 9.3599997
-3.2389567 -2.9223354 0.9934544 11.06425
-3.5816798 -2.5911069 0.97199482 9.666667
-3.3181927 -2.1799538 0.95937997 11.528157
-3.4407027 -1.3210531 0.96494973 11.361208
-3.4274125 -1.0961765 0.97382504 13.27991
-3.2341568 2.1877131 0.96313709 13.5
-3.2292309 2.4793918 0.96896952 9.9694996
-3.5281298 3.104919 0.95885974 9.4477501
-3.3186946 3.3416536 1.0335797 9.9183331
-3.2516148 -4.9206643 1.4602828 13.5
-3.3770175 -4.5609369 1.452451 13
-3.4539123 -4.2568731 1.3907088 11.75
-3.3913312 -2.6323698 1.3848537 12.875333
-3.2953498 -2.2862761 1.3585397 12.5
-3.3713157 -1.3444748 1.3985205 12.63213
-3.2264547 -0.98866671 1.3205447 13.520874
-3.21854 2.8924129 1.2565844 12.17175
-3.4771497 3.5031497 1.5550795 12
-3.488126 3.6039665 1.4246224 12.17
-3.3379607 -4.4568849 1.776693 12.846667
-3.4956372 -4.2616911 1.8497052 13
-3.5652924 -3.4191735 1.9042041 14.0655
-3.478492 -3.0058348 1.7252834 13.709834
-3.4533052 -2.6272581 1.6116714 13
-3.2561388 -2.3385701 1.6518987 14
-3.4002278 -1.3650776 1.6227419 14
-3.5435472 3.3073015 1.9300971 13
-3.386142 3.8079653 1.8416225 12.5
-3.3531773 -4.4027424 2.0307038 14
-3.4213996 -4.2839022 2.1188924 13.666667
-3.5756354 3.0885065 2.098762 14
-3.364135 3.5170627 2.069376 13.833334
-3.2948158 3.8639443 2.1158257 14.042125
-3.0278077 -4.2870221 -1.0103809 2
-2.9515045 -3.4059899 -1.0288132 1
-2.9980376 -1.3627729 -0.8706553 0
-3.1462903 -5.1815476 -0.57700032 4.75
-3.0257292 -5.3917608 -0.19151573 6.5999999
-3.1905227 2.7815049 -0.29624018 1
-3.1443892 2.8258095 -0.083656602 2.5
-2.9208858 -5.3446589 0.15378323 6
-3.0222032 -5.0712438 0.27028453 5.2222223
-3.1662943 -4.6248283 0.11341115 6.0137501
-3.1619501 -1.6950464 0.34096205 5.5
-3.1737025 -0.6642819 0.30882916 4.75
-2.8912697 1.7491494 0.33372071 14.02475
-3.0190051 2.2854991 0.1128563 8.354167
-2.9980559 2.6262794 0.22858863 6.5
-3.0369539 -5.3563013 0.55715662 10.1
-3.0432284 -4.9571738 0.66754448 6.5333333
-2.9966784 -4.7550082 0.57902437 8.458333
-3.078392 -2.4386392 0.52333403 8.0327501
-3.1000473 -1.7223065 0.65991777 8.333333
-3.123544 -0.6860072 0.58915031 7.5
-3.0582659 2.2924905 0.60530877 11.733334
-2.8161981 2.4054232 0.7780863 12.5
-3.0512373 2.827553 0.53762126 6.8333335
-3.0342801 -5.3636456 1.1158193 12.666667
-2.9485676 -4.9422803 1.002957 9.7375002
-3.0757759 -4.6601515 1.0321034 9.7666664
-3.0612845 -2.4732635 0.90587085 11.4629
-3.0513499 -1.7494738 0.98195529 12.098734
-3.15854 -1.5111189 0.97899032 12.625
-3.0692403 -0.72638184 0.96567929 10.853334
-2.8712051 0.88963294 1.1352738 12.753375
-3.0543783 2.2957702 1.0138574 14
-3.15029 2.4963779 1.1206834 11.057625
-2.9609437 2.8355062 1.0053217 10.278459
-2.9779506 -5.4940352 1.317752 13
-2.8810236 -5.0369864 1.3238653 10.25
-3.074832 -4.621305 1.3820301 11.121428
-3.1202812 -2.1436534 1.3619606 13.796474
-2.9997635 -1.7260451 1.3958101 13.525
-3.1094913 -1.599171 1.2975881 12.5
-3.1059928 -0.80645543 1.3230915 14.0195
-2.9927001 -0.71635914 1.3160655 13.416667
-2.8890636 -5.6490898 1.6888827 14.0315
-2.9943528 -5.4325461 1.6508837 14.0062
-2.8726346 -4.9049101 1.6544744 13
-3.024354 -4.6184011 1.7587214 12.566668
-2.9713244 -4.5879068 2.2251468 13.5
-2.535702 -4.2244434 -0.94752651 2
-2.5816007 -3.6481819 -1.0196481 1
-2.512244 -2.9391472 -1.0245515 0
-2.5470297 -4.318881 -0.69399446 3.5
-2.5158565 -5.4309812 0.1342999 3.5
-2.7823036 1.9548467 0.30242291 14.0225
-2.6544628 2.1888089 0.27096981 14.02
-2.5336597 2.562995 0.25927263 11.882999
-2.5747173 -5.3724384 0.51280588 5.375
-2.7008619 -5.1293545 0.60118884 6
-2.6447258 -1.7709895 0.63537431 11.546
-2.596806 2.522692 0.5467838 11.5
-2.5660899 -5.2458558 0.8826372 9.1000004
-2.6404054 -5.1734924 1.1239988 8.5
-2.6062303 2.512471 0.96053696 14
-2.5282557 -5.2814999 1.4172537 10.2
-2.7555687 -4.991509 1.4953779 10.5
-2.4365921 -5.2562208 1.698773 12.25
-2.6826522 -5.0203562 1.7691193 12.675467
-2.6472545 -4.8649764 2.202455 13
-2.6821129 -4.7109952 2.2801244 13.625
-2.191529 -4.1036558 -0.89419544 2
-2.2197006 -3.8434992 -1.0129144 1
-2.0965192 -3.2293081 -1.019809 0
-2.2989261 -3.1041155 -1.023258 0
-2.16922 -4.0897512 -0.60154295 3.75
-2.0150666 -5.62602 -0.046826862 2.4000001
-2.1112058 -5.549099 -0.24240187 1.5
-2.1242721 -4.0546527 -0.19761439 6.25
-2.1636953 -5.7071776 0.21223931 3.6666667
-2.3180223 -5.5512257 0.15651469 3.5
-2.1155899 -4.0513797 0.159126 8.5
-2.261328 2.5981781 0.22136392 10.503875
-2.1889944 -5.641705 0.69776136 6
-2.2065148 -5.551146 0.67098886 7.1666665
-2.1578023 -4.0623908 0.53437883 10.833333
-2.0120854 -3.9904213 0.59201247 11.3
-2.2205918 2.697777 0.53273523 11.533333
-2.2135756 -5.4507532 0.95323479 8.8452387
-2.1548228 -4.0519223 1.0483418 13
-2.2916317 2.6475961 0.92781609 14
-2.1924288 -5.4326873 1.4113638 9.5333338
-2.1869206 -5.3162637 1.7164564 12.416667
-2.1520295 -5.1433649 1.8210884 11.859
-2.2167828 -4.9407268 2.1858745 13.247723
-1.9465445 -3.9897051 -1.012727 1
-1.7797264 -3.4125154 -1.0198087 0
-1.776812 -5.778604 -0.53496987 0
-1.9814785 -4.0131011 -0.62180769 3.5
-1.7889067 -5.7681289 -0.32232472 1
-1.8975613 -3.9342132 -0.19446935 6.1999998
-1.7827516 -5.7242002 0.18261546 4.0833335
-1.8590212 -5.4805408 0.25109845 7.5999999
-1.8121769 -3.8891296 0.37389514 10.0325
-1.7405723 2.8886137 0.20400806 9.2333336
-1.6046878 3.296407 0.1919307 9
-1.7981393 -5.7224422 0.63532537 7.407692
-1.9624881 -5.5713129 0.54182923 9
-1.7141967 -4.9875445 0.64314759 11.0355
-1.8249078 -4.7506752 0.62043083 11.0345
-1.7913933 -3.8480456 0.66667414 12.0325
-1.9786732 2.7821591 0.56618249 11.75
-1.6093837 2.9217465 0.58485419 12
-1.8035247 -5.7263193 1.0399498 9
-1.8882828 -5.596571 1.140723 12
-1.7157159 -4.9947648 0.83074951 12.0355
-1.8258489 -4.7556014 0.80105948 12.0345
-1.9036888 -3.8917651 1.0483501 13.391125
-1.9830854 2.7909908 0.90730804 14
-1.7735478 -5.6737161 1.3966459 10.557143
-1.8659142 -5.4703369 1.4524437 10.666667
-1.7549902 -5.6479917 1.7563555 14
-1.8594553 -5.4260406 1.7659576 11.8
-1.7714584 -4.8866372 1.9640089 12.578
-1.9690078 -5.2257519 2.1118021 13.0775
-1.7864436 -4.492249 2.2093942 14.077499
-1.3672779 3.3822005 -0.96596885 0
-1.4328607 -5.3994746 -0.48237932 0
-1.2148151 -2.7576342 -0.6135844 1.6666667
-1.5006664 2.9867382 -0.4850997 3.3
-1.431332 3.3771465 -0.5804975 2.9444444
-1.3692822 -5.7983723 -0.18315195 4.0999999
-1.206242 -2.7707818 -0.24185643 5.1666665
-1.5355469 2.9793465 -0.18185331 5.9166665
-1.4783095 3.3811934 -0.23771812 5.625
-1.2583674 -6.0605392 0.24704288 3.5
-1.3854979 -5.8522015 0.24564743 5.75
-1.2101241 -2.747988 0.2256697 9.666667
-1.4903936 3.0056887 0.17452058 9
-1.4463259 3.3708637 0.25469404 9.5
-1.3692461 -5.8311257 0.59376717 8.166667
-1.209691 -2.7221537 0.59864783 12.375
-1.4923873 3.0249667 0.62393385 12.162
-1.5215147 3.3217077 0.6385352 11.833333
-1.4423472 -5.7265902 1.0251898 9.8571424
-1.5952657 -5.2006354 0.85575145 12.0365
-1.4726009 3.0058517 0.88629842 14.073999
-1.4723892 3.3570161 0.90408748 13.5
-1.3745791 -5.794517 1.4108601 10.833333
-1.4771507 -5.5261583 1.5500417 10.04
-1.4014801 -5.7616568 1.7060946 14
-1.4910382 -5.5266113 1.7763414 11.08
-1.341238 -5.0877409 1.8368129 12.080375
-1.3990631 -4.4827561 1.9894747 13.079501
-1.483766 -4.2559466 2.0812001 14.078751
-1.0370498 -3.1870794 -0.88617176 0
-1.0106359 3.5305598 -0.97242701 0
-0.80082643 3.6251106 -0.98273426 0
-0.98277205 -3.3040283 -0.53601092 3
-1.1052632 -3.0119989 -0.60162199 2.1125
-1.0232915 3.5421326 -0.6094048 2.75
-1.1385373 -5.9424558 -0.23827384 5.75
-0.90905792 -5.5019336 -0.23884909 5.75
-0.88358748 -3.4564812 -0.24553318 5.5
-1.1014338 -3.0068285 -0.1541446 6.0999999
-1.1895787 -2.7843316 -0.050661922 7
-0.94101036 3.5412064 -0.12524886 6.5
-1.0968841 -6.180428 0.37125733 4
-0.95973545 -5.9599152 0.30905843 5.3333335
-0.84287417 -5.5518775 0.23810299 8.333333
-0.92110538 -3.4201138 0.23431724 9.375
-1.1186532 -2.9341178 0.23399267 9.666667
-1.1618555 -2.77245 0.20911017 9.5170002
-1.0120919 3.5382864 0.25585854 9.5
-1.0465612 -6.1221528 0.63041782 5.1999998
-0.96773255 -5.9939914 0.50572896 9.5
-0.8153429 -5.5535493 0.55213845 10
-0.93950516 -3.370841 0.6550712 12.033862
-1.1472852 -2.8750896 0.61629236 12.296282
-1.1667089 -2.7815535 0.74229932 13.511333
-1.0188029 3.5414312 0.77429265 12.5
-0.95362854 -6.058466 1.0735095 9.75
-1.0735601 -5.9110446 0.89672792 10.4
-0.85742575 -3.7560685 1.1804286 11
-0.93228161 -3.403625 0.89847326 13.734612
-1.1283232 -2.9285133 0.83098376 14.0175
-1.0203402 3.5421374 0.97733361 14
-1.0475127 -5.8793163 1.3617659 11.3605
-0.90156662 -5.3553219 1.5519826 10.249334
-0.89244407 -3.6541991 1.326369 12.111111
-1.0134468 -3.4845848 1.5517699 13.193417
-1.0074769 -5.8500071 1.637748 12.693833
-1.1970737 -5.3045888 1.7048142 11.08125
-0.98396158 -4.8327603 1.6786014 11.748667
-0.87740982 -4.6062913 1.6607436 12.0825
-0.95462877 -3.4742587 1.6600456 13.932449
-0.7583828 3.6310205 -0.98187208 0
-0.56222051 3.7458835 -0.59629923 2.9722221
-0.74551147 -5.2063584 -0.37412363 5
-0.70591366 -5.1767344 -0.11300322 6.5
-0.55138081 -3.4295819 -0.16230835 5.9285712
-0.51092565 3.7612689 -0.17255385 6.1799998
-0.69445914 -5.2012401 0.12537326 8.0559998
-0.6515494 -5.1785102 0.18706653 8.25
-0.52418435 -3.4665089 0.26873752 9.5806122
-0.53068763 3.7488663 0.18539381 8.8999996
-0.46010357 -5.761816 0.67951792 11.057
-0.69638753 -5.4086866 0.61449856 10.544533
-0.56606019 -5.1560354 0.74587911 11.5
-0.52318257 -3.3760698 0.6259045 12.114285
-0.566513 3.717979 0.56336027 11.393333
-0.69223195 -5.4058619 0.86849934 12.0555
-0.54448086 -4.0140572 0.95954013 9
-0.60443681 -3.8956478 1.0772543 10
-0.73927808 -3.4212902 0.92755389 14
-0.49335364 3.762588 0.93903238 13.53975
-0.77719891 -6.0480757 1.2150751 13
-0.64928126 -5.8233347 1.3624064 10.241195
-0.43598726 -5.2637248 1.3001583 9.085
-0.61582905 -4.9801259 1.4606246 10.334
-0.52027261 -3.777055 1.3123293 11.79225
-0.72844762 -6.0241108 1.6386518 14
-0.083627559 -3.8980842 -0.80050594 1.6
-0.3844766 -3.3810751 -0.97953206 0
-0.11863593 -4.4418492 -0.54374063 4
-0.19966103 -4.1998124 -0.60621464 3.25
-0.022196909 -3.9280677 -0.6087777 3.125
-0.18203016 -3.3449478 -0.69203734 1.3333334
-0.28420392 3.5595279 -0.57442093 2.8666668
-0.10164693 3.6480353 -0.57026237 3
-0.018981162 -3.8970656 -0.35518664 5
-0.37434939 -3.2441485 -0.083201401 6.75
-0.28402397 3.5284979 -0.18182056 6
-0.060617726 3.6554875 -0.12478752 6.5
-0.00068445771 -4.0116763 0.34944513 10
-0.27910748 -3.3278685 0.27404851 9.9078989
-0.2235465 3.5498857 0.2307374 9.3666668
-0.094118007 3.6418245 0.25327486 9.5
-0.23444088 -4.8944755 0.71498197 12.058001
-0.08152765 -3.8227801 0.60672599 11.75
-0.27097625 -3.3846345 0.742818 12.95275
-0.044694733 -3.0374579 0.74025363 11.598801
-0.30580676 3.5399024 0.62016952 11.833333
-0.1098666 3.6523788 0.76743168 12.5
-0.38290772 -5.6417613 1.1915532 8.0852499
-0.19173026 -5.3754005 1.138248 8.0862503
-0.14957276 -3.8590276 0.99984819 12.361945
-0.28199965 -3.4464476 0.89783973 14.014438
-0.13607994 -3.1338651 1.0060041 11.08725
-0.29427621 3.53387 0.906946 13.75
-0.056764271 3.6455979 0.89902908 13.5
-0.34793189 -5.8651447 1.5000386 14.057
-0.075177707 -4.142458 1.5077018 12.08725
-0.35246366 -3.7915847 1.2928247 11.5855
-0.1446114 -3.8001573 1.6906323 13.087
-0.33157602 -3.4793017 1.6289802 13.685701
0.32515839 -4.1279883 -0.84229898 2.1666667
0.086390927 -4.4435954 -0.73148012 3
0.35093674 -4.1635265 -0.53806978 4.3333335
0.20122482 3.0973814 -0.62448841 1.7083334
0.19974458 3.2751205 -0.68662381 1.5
0.14539267 3.6984925 -0.48094076 3.75
0.017579956 -3.91434 -0.36284828 5
0.02349627 3.5751803 -0.23027715 5.625
0.038284708 3.634716 -0.061142188 7
0.063720398 -3.328316 0.21662295 10.061
0.27488908 3.1569009 0.056172583 8.1324997
0.084478505 3.5062151 0.062165491 8.0444174
0.21743608 3.7674947 0.21723843 9.1599998
0.16079517 -4.8601418 0.64684939 12.0605
0.26224804 -4.6355972 0.56285924 11.556417
0.1249406 -4.2640381 0.59473538 11.50915
0.10166432 -3.7975895 0.43623286 11.06075
0.25852856 -3.2560673 0.62157214 13.06225
0.27786288 3.0497546 0.66012329 12.799084
0.023912679 3.5872126 0.43606359 11
0.25580612 3.7929039 0.54730284 11.5
0.1243167 -4.9951024 0.84372985 12.06
0.24285553 -4.5233593 1.0348886 13.0465
0.092727154 -4.1993122 0.95919693 13.011437
0.15231854 -3.9106333 0.91491973 10.170722
0.088256538 -3.5735633 0.94117534 9.5172863
0.17990139 -3.1069915 0.98256069 10.36775
0.32595146 3.1135848 0.82814229 14.132
0.17534579 3.7639623 0.93366218 13.549987
0.25636366 -5.8026423 1.4383868 13.546249
0.29249552 -5.5449982 1.4769319 14.0465
0.24868669 -3.7018747 1.5105304 12.08975
0.038677622 -3.8099394 1.6058328 12.4882
0.098077059 -3.4159873 1.618003 13.68895
0.46324742 -4.1023817 -0.58935153 4.0666666
0.47502607 -3.0565658 -0.57094282 3
0.62662643 2.9552641 -0.68578827 1
0.65199786 3.4481473 -0.66943061 2
0.54313809 3.8659987 -0.67765474 2.5
0.6435864 3.1081519 0.3303093 10.629126
0.43960515 3.5273178 0.18399608 9.1315002
0.52153856 3.9397914 0.34595263 10.13125
0.56470633 -5.6646204 0.74483591 11.25
0.76715595 -5.5702596 0.78553736 11.5
0.43451124 -4.9392452 0.69189942 11.5475
0.43359092 -4.2029047 0.48622787 11.896166
0.6591258 -3.9938891 0.40598562 11.731416
0.56530577 -3.4073768 0.61423862 11.129666
0.75433081 -3.0738621 0.63043237 10.914332
0.55545145 -2.7566779 0.74543202 9.5641613
0.58252937 3.0134504 0.71216094 13.272429
0.6041919 3.3982456 0.59809268 11.63
0.55801523 3.8769376 0.54470176 11.630918
0.55153584 -5.6599984 0.89481974 12
0.40227437 -3.1429358 0.84519929 9.5917492
0.57362157 -2.6056178 1.0523748 11.744425
0.53864586 -5.6909742 1.3080009 13.015834
0.6987009 -5.4908543 1.3675771 13.524125
0.45518017 -3.6476283 1.4255967 12.091249
0.54218948 -3.3286228 1.425975 12.425751
0.58251864 -2.9870205 1.4491231 13.645806
0.77353376 -2.7029359 1.3969481 14.09575
1.1061294 3.1286051 -0.51664406 3
0.82133979 3.628787 -0.58018076 3
1.0912019 -5.4441605 -0.15257503 6.6999998
1.0364082 -5.4648533 0.17015901 8.375
0.88936228 -3.6102216 0.38694274 11.352928
1.0988386 3.0218863 0.17690042 10.31925
1.0571648 -5.4496918 0.62914765 10.75
1.0572941 -3.3899608 0.44195548 12.069
1.06294 -3.0034568 0.48641503 13.07025
1.1366487 -2.5342987 0.55690336 8.0998335
1.113247 2.9994733 0.63167077 12.865833
0.99247897 3.7220049 0.60417283 12.1275
0.8585903 4.0081081 0.49873811 11.129
0.98705125 -5.3969746 1.4250364 13.845709
0.94294602 -2.7577186 1.3133564 13.097
1.1623967 -2.2545254 1.2179921 13.850876
1.4810904 2.9960847 -1.232144 0
1.3139281 2.7377388 -0.98858953 1.0416666
1.5498426 3.0009379 -0.92081898 2.4000001
1.3716692 2.7688379 -0.56226826 4.6666665
1.5088905 2.9411917 -0.60623521 4.6666665
1.4376508 2.7544599 -0.25741729 7.3333335
1.310035 2.869092 -0.022326337 9.0450001
1.4016267 -5.2836251 0.26035789 8.8883753
1.496465 -5.179122 0.095394015 8.0267506
1.3864973 -2.772172 0.23738883 11.32425
1.404658 2.78475 0.22014679 11.135
1.318244 2.8926933 0.18244651 10.471833
1.3510034 -5.2996917 0.54878658 10.375
1.5230864 -5.0019102 0.58369458 10.7
1.5107924 -2.7270548 0.67072046 8.6017494
1.478829 2.7686872 0.61791557 13.36425
1.336853 2.9150774 0.56505835 12.730547
1.4513409 -5.0472183 0.8260656 12
1.3836451 -2.2764304 1.1584277 12.969234
1.3711399 -5.2909107 1.3856689 13.666667
1.645257 2.9937596 -0.51610827 5.6111112
1.864787 -5.0541854 -0.091469124 7
1.6904541 2.9920223 -0.21323968 8
1.7887509 -5.1007953 0.16526008 8.3885002
1.8954607 -4.8878946 0.60929614 10.833333
1.9471794 -4.8465328 0.82137835 12
1.691828 -2.0030451 1.0614063 12.6065
1.8022989 -5.0670056 1.3197836 13.462777
2.3835082 1.0084146 -1.1072477 1
2.2335858 -4.8907905 0.18675841 8.5
2.2032835 -4.7068038 0.091957659 8.0574999
2.2054679 -4.9572372 0.5919556 10.625
2.3105836 -4.8489571 0.84481812 12
2.1458762 -1.5568599 0.93485546 12.1125
2.1927369 -4.9071531 1.3624396 13.6855
2.6728501 0.68922848 -1.0191686 2.5
2.5050478 1.3480951 -1.0050036 2.5
2.7066443 -1.6923884 -0.66828954 1.5
2.5854423 1.5551764 -0.56605041 6.5
2.6032085 -2.0352321 -0.30315867 4.8333335
2.5782046 -1.995881 -0.16741517 6
2.7097476 0.76931506 -0.056194331 11.113
2.6167789 1.4660258 -0.35686925 8.2613897
2.7733002 1.6994959 -0.3644613 8.1198339
2.6076591 -2.0370312 0.26761377 9.833333
2.5377319 -1.7888168 0.24127866 9.7996817
2.7260737 -1.5716927 0.27347183 10.075
2.6675086 -0.16983564 0.12144667 8.1277504
2.7755134 0.2642138 0.23083085 13.10825
2.7326939 0.64873284 0.18023477 10.135125
2.603894 1.0187967 0.38677135 14.115833
2.6824543 1.4112093 0.24646696 12.4186
2.5441785 -4.9369001 0.58138543 10.5
2.5948799 -2.0290954 0.6140759 12.166667
2.5510628 -1.7649211 0.74309897 13.406001
2.6237128 -1.3944514 0.69185513 13.218857
2.7041023 -1.0393466 0.71065819 12.099333
2.7623227 -0.24465157 0.76979357 12.737141
2.7839017 0.054335784 0.78819698 13.414357
2.639734 1.2306905 0.4162263 14.1175
2.5981913 -2.0403359 0.87467188 14
2.6162288 -1.831918 0.84537733 14.072499
2.436394 -0.83904135 0.84201467 12.691286
2.532217 -0.2672483 0.87507021 14.12525
2.7252715 0.18456578 0.829795 14.129749
2.5460756 -4.9391942 1.314695 13.208333
3.1386526 1.580547 -1.2123446 2.6666667
2.8133073 0.59914464 -1.004832 3
3.1613204 1.1620257 -1.1451868 3
2.9497843 1.2379256 -1.1696244 2.3333333
2.9140618 1.7790239 -0.98745435 3.8666668
2.9060504 -1.9524649 -0.52526248 3.1666667
2.8632245 -1.2179695 -0.59515655 2
2.9066453 -1.959414 -0.30108881 5
2.97154 1.4657652 -0.27511656 9.1175003
3.0820389 1.7597944 -0.24385948 9.5908003
2.8228309 0.008369131 0.22420973 13.10575
2.9431176 0.69332319 0.11138576 10.897416
3.0282881 0.87037724 0.13991281 11.180434
3.1432152 1.7244775 0.25756684 12.7065
2.8290083 -4.8172207 0.48742953 10
2.9828894 -4.7316079 0.58522177 10.5
3.0690918 -1.7969931 0.55638218 11.408166
3.0178816 -0.92907238 0.65186375 12.510001
2.9406688 -0.68963528 0.66476661 12.8834
3.0224452 -0.15296973 0.55724478 11.191292
3.046705 0.18184616 0.6817655 12.213374
2.9996006 0.59422988 0.74159449 13.425042
3.0784903 1.0515162 0.75890332 13.9369
3.1100821 1.8076022 0.48610035 13.7865
3.1694839 -4.6213551 0.8025831 11.6
2.807642 0.40200222 0.81111801 14.13175
2.8008325 -4.8516331 1.489859 14
3.0332115 -4.714376 1.3519568 13.333333
3.3424141 1.480397 -1.2222924 3
3.2097361 -1.7833158 -0.83578634 1
3.3544149 0.94531429 -1.1974084 3
3.2447412 1.6056262 -0.98083317 4.5
3.40627 -2.1656275 -0.7025004 2.5
3.2728519 -1.8174157 -0.60146064 2.875
3.5250049 -2.662967 -0.074671984 7
3.2325983 -1.8301678 -0.31931815 5
3.4548995 1.5422693 -0.12888248 10.587376
3.2994337 1.6515779 -0.14514028 10.487833
3.4926431 -4.4453516 0.20755553 8.5555563
3.4981582 1.512484 0.061418664 11.994083
3.427238 -4.5159664 0.69215721 11
3.4473984 -1.6031593 0.59636283 12.0775
3.5424976 -1.3315585 0.48718074 11.279699
3.3338213 -1.0192896 0.56331724 11.367215
3.2272832 -0.71587169 0.57581311 11.58375
3.4719985 0.23325481 0.48173776 11.13075
3.5253131 0.64094341 0.51051408 11.847928
3.2392712 1.0534177 0.69355232 13.136749
3.3859713 1.2663288 0.69985759 13.138
3.2374907 1.7403839 0.46842936 13.872917
3.3825872 -4.5267196 0.88935411 12
3.4343219 -4.5117235 1.4026749 13.5
3.891758 -3.1220901 -0.51750177 4.5
3.9126539 -2.0865986 -0.69282705 3
3.7535024 -1.7296015 -0.55058163 3.6666667
3.6873488 -1.599897 -0.67551315 2.6666667
3.7675483 -4.1504903 -0.16084243 6.6666665
3.8792863 -3.1248407 -0.17120652 6.5
3.6858552 -4.5133672 0.10306449 8
3.7183723 -4.2800097 0.18876438 8.458333
3.8885257 -3.1184897 0.14523873 8.333333
3.6956196 -2.6902084 0.39835438 10.072
3.7174232 -4.4338703 0.50489658 10
3.7643769 -4.2263622 0.61653191 10.622222
3.8365359 -3.0213587 0.62144595 11.190499
3.8404956 -2.6395736 0.73231143 12.07275
3.9376383 -2.1838131 0.70730954 12.0755
3.7734761 -1.8409309 0.59944487 11.677
3.6291986 -1.5166508 0.57075959 11.745334
3.7470617 0.73814082 0.42645928 11.13425
3.7439559 1.0627795 0.44975245 11.691944
3.8068526 -4.2478037 0.89742827 12
3.7886052 -4.281311 1.425766 13.555556
4.2564712 -3.9482863 -0.45121196 5.25
4.054256 -3.4842372 -0.46146551 5
4.0561619 -4.0257773 -0.19655652 6.5
4.3464499 -3.8773477 -0.098989345 7
4.0512238 -3.4779487 -0.18326959 6.5
4.0578299 -4.0209212 0.21827559 8.6000004
4.3299227 -3.8377161 0.10234066 8.03475
4.0725145 -3.4573581 0.21676971 8.666666
4.0438557 -4.0383668 0.64809865 10.75
4.2855563 -3.9019001 0.55478495 10.25
4.0929232 -3.4826171 0.58059794 10.6139
4.0650907 -2.5326202 0.7526257 12.074
4.2508488 -3.7953906 0.89682114 12.023334
4.0720053 -4.0141721 1.414287 13.5
4.3165154 -3.810214 1.4243387 13.514
4.3655491 -3.5428236 1.3903828 13.5705
4.4163599 -3.8681123 -0.40543693 5.5
4.443193 -3.3440113 0.28849575 9.0714998
4.438468 -3.8750038 0.4624258 9.78475
4.4174919 -3.3222435 0.673985 11.0715
4.44596 -3.8351114 1.080055 12.75
4.4670153 -3.8130264 1.5622361 14
4.4825001 -3.37783 1.3874561 13.5715
