# .PCD v0.7 - Point Cloud Data file format
VERSION 0.7
FIELDS x y z intensity
SIZE 4 4 4 4
TYPE F F F F
COUNT 1 1 1 1
WIDTH 1064
HEIGHT 1
VIEWPOINT 0 0 0 1 0 0 0
POINTS 1064
DATA ascii
-14.061011 9.8251715 -0.29939401 7
-14.171738 10.260309 -0.30537024 7
-14.323521 10.815895 -0.31326485 7
-14.053716 9.8206806 0.29925895 8.1625004
-14.181743 10.268196 0.30560932 8.1619997
-14.321857 10.815332 0.31325614 8.1615
-14.051137 9.8188734 0.89833128 9.1625004
-14.173848 10.262478 0.91704959 9.1619997
-14.322742 10.815997 0.94057441 9.1615
-14.044988 9.8145733 1.4989991 10.1625
-14.182451 10.268703 1.5318317 10.162
-14.327324 10.819453 1.5706757 10.1615
-13.828071 8.9880133 -0.28785583 7
-13.943008 9.3988762 -0.29348621 7
-13.623903 0.80805773 0.23818639 8
-13.824713 8.9863653 0.28780007 8.1634998
-13.939713 9.3972254 0.29343402 8.1630001
-13.628242 0.80831999 0.7154187 9
-13.620246 0.81928319 1.1936879 10
-13.820281 8.9834814 0.86381936 9.1634998
-13.946917 9.4020767 0.88146478 9.1630001
-13.819983 8.983284 1.4420121 10.1635
-13.945211 9.4009256 1.47132 10.163
-13.629766 0.80840617 1.6763537 11
-13.827079 8.9878941 2.0248065 11.1635
-13.934311 9.3935728 2.0632842 11.163
-13.555774 1.0664015 -0.23736717 7
-13.456365 1.3999782 -0.23615877 7
-13.570016 1.0104167 0.2374889 8
-13.469636 1.3898077 0.236334 8
-13.573752 1.0106763 0.71329141 9
-13.471704 1.3900062 0.70973325 9
-13.566915 1.021638 1.1902421 10
-13.465635 1.3893876 1.1842983 10
-13.570651 1.0104606 1.6707995 11
-13.47031 1.389841 1.6626704 11
-12.417372 3.7699218 -0.22651179 7
-12.521943 4.1955352 -0.23051716 7
-12.566427 4.6838942 -0.23409098 7
-12.491629 5.0658493 -0.23528163 7
-12.423361 5.2823391 -0.23562951 7
-12.521062 4.1904817 0.23046751 8
-12.600524 4.6165867 0.23422043 8
-12.529709 4.8866868 0.23473161 8
-12.425903 5.2589474 0.23550685 8
-12.523654 4.1853709 0.69202411 9
-12.605392 4.5944552 0.70309252 9
-12.5301 4.8868475 0.70480508 9
-12.428966 5.260283 0.70728213 9
-12.523596 4.1913772 1.1554306 10
-12.611624 4.6206317 1.1750337 10
-12.523261 4.8841844 1.1759524 10
-12.4228 5.2576556 1.180142 10
-12.408465 3.7789617 1.592574 11
-12.526984 4.2080398 1.62263 11
-12.602265 4.6131935 1.6476988 11
-12.526428 4.8854027 1.6507914 11
-12.426318 5.2591343 1.6567225 11
-12.46844 3.9920895 2.0734475 12
-12.520307 4.171001 2.0900209 12
-12.013858 2.3208659 -0.2135815 7
-12.077859 2.5439377 -0.21544646 7
-12.202017 2.9911187 -0.21931356 7
-12.333097 3.5196748 -0.22386752 7
-12.348744 5.4968057 -0.23592782 7
-12.257807 5.8299627 -0.23692414 7
-12.166377 6.2174425 -0.23847455 7
-12.079911 6.5617132 -0.23994789 7
-12.031531 2.3661458 0.214004 8
-12.065581 2.4992573 0.21504916 8
-12.178562 2.9387858 0.21866477 8
-12.309977 3.4022095 0.22290626 8
-12.388852 3.6934371 0.22562875 8
-12.338779 5.5794859 0.23635946 8
-12.255898 5.9047589 0.23744592 8
-12.187458 6.1598382 0.23835032 8
-12.061193 6.6238589 0.24018714 8
-12.016943 2.3215008 0.6413697 9
-12.063392 2.4988446 0.64558583 9
-12.184205 2.9320414 0.65675777 9
-12.312971 3.4030402 0.66945076 9
-12.387305 3.6929598 0.67737544 9
-12.357112 5.5005679 0.70882857 9
-12.284356 5.8048501 0.7120325 9
-12.178998 6.1555877 0.71513969 9
-12.059223 6.6294451 0.7212019 9
-12.016842 2.3214962 1.0706937 10
-12.061257 2.4983778 1.0775493 10
-12.185778 2.948859 1.0968814 10
-12.312639 3.4030163 1.1175495 10
-12.39526 3.7179973 1.1321021 10
-12.362602 5.5030246 1.1838357 10
-12.279297 5.8024611 1.1881677 10
-12.188868 6.1605229 1.1948086 10
-12.096956 6.4399204 1.1988965 10
-12.009034 2.340827 1.5021614 11
-12.063194 2.4987688 1.5125179 11
-12.182843 2.9317648 1.5385456 11
-12.307791 3.4016011 1.5677918 11
-12.06004 6.6297331 1.2040248 10
-12.019716 2.322017 1.9387974 12
-12.06151 2.49842 1.9507862 12
-12.184609 2.9412303 1.9852684 12
-12.357083 5.5005598 1.6606953 11
-12.279515 5.802546 1.6675451 11
-12.184355 6.1411939 1.6752812 11
-12.060666 6.623498 1.6894734 11
-12.308411 3.4017904 2.0224602 12
-12.389917 3.7163799 2.0486171 12
-11.842217 1.4331009 -0.20821965 7
-11.873073 1.7817509 -0.20957676 7
-11.951257 2.1016195 -0.21181326 7
-11.957443 7.024168 -0.24205633 7
-11.839469 7.4161563 -0.24383478 7
-11.824949 1.4611144 0.20794371 8
-11.863304 1.7653091 0.2093357 8
-11.973035 2.1886449 0.21242924 8
-11.949236 7.0192466 0.24189246 8
-11.833562 7.4727569 0.24429013 8
-11.810712 1.4593781 0.62362355 9
-11.865118 1.7655883 0.62864888 9
-11.968666 2.1669641 0.63740218 9
-11.959275 7.0116515 0.72651094 9
-11.829006 7.4698329 0.73317385 9
-11.813616 1.4597259 1.0413346 10
-11.863722 1.765444 1.0493448 10
-11.971896 2.1675999 1.0643671 10
-11.819498 1.4604447 1.4621792 11
-11.868883 1.7660971 1.4733315 11
-11.976546 2.1788249 1.4945915 11
-11.958776 6.9979038 1.2121859 10
-11.840234 7.4770627 1.2251134 10
-11.877464 1.8128387 1.9028924 12
-11.971473 2.167522 1.9268138 12
-11.962555 7.0001383 1.7017606 11
-11.832657 7.4721751 1.7182568 11
-7.659956 1.4134071 -0.40819809 6
-7.6178236 -6.1708522 2.263226 14.0195
-7.6191421 -6.1719208 2.6271949 15.0195
-7.5750828 1.7823496 -0.4078446 6
-7.4695983 2.1656523 -0.40758628 6
-7.3804393 2.4725041 -0.40789342 6
-7.2481675 2.8198204 -0.40759912 6
-7.3541403 -6.1642408 2.2152767 14.02
-7.2979016 -4.925169 2.1958733 14.517
-7.347127 -4.6938567 2.1743593 14.516251
-7.3296876 -6.249393 2.5809083 15.02025
-7.0950284 3.1938257 -0.40776485 6
-6.9642687 3.471127 -0.40777734 6
-6.7960038 3.8028359 -0.40812212 6
-6.5883737 4.1420932 -0.40787384 6
-6.274569 4.598907 -0.40769848 6
-6.1847534 -6.3876057 0.46592155 9.0229998
-6.1871529 -6.3900852 2.3832033 15.023
-5.8414931 -6.3868241 0.45357981 9.0237503
-5.7510061 -6.3955035 1.9856063 14.024
-5.8744311 -6.3869929 2.2173898 14.690333
-5.238236 0.19313172 -0.091490842 7
-5.3428373 4.2782435 -0.23900366 6.5
-5.4022207 0.25747889 0.1888772 8.5446253
-5.4531021 4.2804327 0.21858421 8.3999996
-5.4664545 -6.3946466 0.44086686 9.0247498
-5.3806052 0.24480373 0.56619549 10.5357
-5.4270806 4.27531 0.69817626 10.388889
-5.4443398 4.2779684 1.0342807 11.75
-5.2602129 -4.5611281 1.6072804 14.0205
-5.2263703 4.2794695 1.8097697 15
-5.4653282 -6.3932071 2.2536831 15.02475
-4.8808746 -0.1154011 -0.085215263 7
-4.8654389 4.1950836 -0.1867484 6.6666665
-4.9040165 -0.15622778 0.15391909 8.3999996
-4.8767104 4.1953158 0.16873454 8.25
-4.9870172 -6.3975053 0.42511517 9.026
-4.9319754 -0.13392924 0.55358291 10.7
-4.9215446 4.2109323 0.58504879 10.083333
-4.9191012 4.2207141 0.96748132 11.75
-4.8621387 -4.8557696 1.586351 14.0225
-4.9625797 -4.6338768 1.5675848 14.0215
-5.01016 4.247468 1.3717598 13.4
-4.8912024 -4.9675708 1.7384256 14.52275
-5.0087733 -4.6768837 1.836279 15.0215
-4.9756494 4.2378345 1.7095072 14.833333
-4.9854574 -6.3955293 2.1729577 15.026
-4.659112 0.28833467 -0.40835226 5
-4.6207147 0.60649168 -0.40784749 5
-4.545857 1.0054299 -0.40733629 5
-4.4458003 1.3785188 -0.40728313 5
-4.4161086 -0.51754588 -0.077614173 7
-4.5720072 -0.24119981 -0.23726662 6
-4.5886974 4.1953688 -0.21645589 6.5
-4.5569835 -4.7061563 0.11432056 8.0229998
-4.610702 -0.40644997 0.16165304 8.5
-4.6078053 4.1966815 0.10879916 8
-4.6524882 -6.4016919 0.41470709 9.0270004
-4.6922121 -4.7808456 0.58603293 10
-4.4684305 -0.52762944 0.62474036 11.444444
-4.6256747 -0.39528403 0.48795864 10.5
-4.6301508 4.1973615 0.60185975 10.25
-4.6531501 -4.7843695 0.93877071 11.5
-4.6668124 4.1972017 0.99403131 12
-4.6935401 -4.7821994 1.3024268 13
-4.6332016 4.1975937 1.3290795 13.5
-4.6465869 4.19837 1.6778599 15
-4.5627351 -6.3893137 2.1037424 15.02725
-4.3035641 1.7704577 -0.40726012 5
-4.0633678 2.2640581 -0.40705773 5
-4.216764 -4.5994024 -0.32708904 6
-4.1523905 -0.65031606 -0.16998082 6.3333335
-4.3029766 -0.34027782 -0.37759617 5
-4.1771135 4.1998329 -0.17176114 6.6666665
-4.2332878 -4.7056518 0.11046989 8.0240002
-4.1254196 -0.81338328 0.14681311 8.5
-4.3407412 -0.63210744 0.15320107 8.5
-4.1960573 4.1986589 0.10362489 8
-4.2156019 -4.7807736 0.67045456 10.5
-4.1232491 -0.81493735 0.55368793 11.25
-4.2905526 -0.67711169 0.57221186 11.25
-4.2176785 4.1966686 0.5952391 10.357142
-4.2195978 -4.780643 1.0101883 12
-4.220892 4.1985426 1.0505867 12.5
-4.230999 -4.7766652 1.354884 13.5
-4.1879263 4.1970577 1.412425 14.2
-4.3347201 4.1981587 1.6167779 15
-4.2184095 -6.3932648 2.0523896 15.02825
-3.8156192 2.6691005 -0.40750954 5
-3.7821522 -4.592381 -0.3118163 6
-3.6116719 -1.2116641 -0.066492237 7
-3.8500164 -1.0048653 -0.069473863 7
-3.7883852 -0.78056961 -0.33844981 5
-3.732188 4.1983509 -0.17952019 6.583333
-3.8085194 -4.7087836 0.10570095 8.0255003
-3.6257489 -1.2396107 0.15607288 8.666667
-3.8730979 -1.0268975 0.1399662 8.5
-3.7594306 4.1969757 0.16364889 8.333333
-3.7500513 -4.7806339 0.6394068 10.5
-3.6328294 -1.2322553 0.50538796 11.25
-3.8724368 -1.0289009 0.52809191 11.25
-3.7975461 4.1989956 0.58118516 10.433333
-3.751615 -4.7821364 1.1089773 12.666667
-3.8253236 4.1921802 1.080283 12.888889
-3.8592184 -4.7846689 1.3623503 13.75
-3.8108721 4.1986713 1.4569415 14.7
-3.2765722 -0.6123246 -0.40867689 3
-3.3226953 -0.21330506 -0.40824133 3
-3.3029959 0.23231272 -0.40654358 4
-3.2608433 0.6253559 -0.4080331 4
-3.4977133 3.0914581 -0.40840232 5
-3.2959075 3.2879179 -0.40725133 5
-3.4302149 -4.5952277 -0.30056214 6
-3.3736269 -1.4112918 -0.063860163 7
-3.417376 4.1993728 -0.20988882 6.3888888
-3.4825571 -4.7076411 0.10219567 8.0267506
-3.3891661 -1.4353178 0.096829265 8.25
-3.4722316 4.1973586 0.19027992 8.5
-3.5361254 -4.7800307 0.62513834 10.5
-3.40974 -1.4177948 0.603715 12.133333
-3.4519238 4.1998096 0.59774548 10.633333
-3.4014795 -4.782701 1.0352719 12.5
-3.4108653 4.2007232 1.0517633 13
-3.3737383 -6.6118751 1.4429209 13
-3.3553605 -4.7815213 1.3488418 14
-3.407506 4.2004337 1.3383269 14.444444
-3.4063447 -6.6077094 1.8082865 14.333333
-2.8010182 -3.7208285 -0.40753689 5
-3.1619296 -3.4165263 -0.40740848 5
-3.1583586 1.0231172 -0.40772152 4
-2.9705863 1.4725795 -0.4075 4
-3.0919154 3.4926562 -0.40808403 5
-2.8104072 3.724823 -0.40822867 5
-3.0459836 -1.6882308 -0.060823936 7
-3.0229242 4.2459593 -0.18832371 6.4666672
-2.9849761 -1.7753649 0.13762693 8.6333342
-3.0251865 4.2095227 0.19948889 8.6000004
-2.9895098 -1.7725939 0.55893278 12.057143
-3.0392728 4.2140551 0.59481275 10.761904
-3.0093548 -4.7086916 1.0604746 12.882125
-3.010875 4.2131362 1.0033369 12.979166
-2.9429331 -6.0799985 1.4769349 13.677333
-2.9218111 -4.6777496 1.3489368 14.382125
-3.0222883 4.2166543 1.342893 14.755557
-2.8903637 -6.100769 1.8088955 15
-2.7378824 1.879014 -0.40768066 4
-2.5652804 2.1057887 -0.40767619 4
-2.575032 3.8834579 -0.40765905 5
-2.4732542 -2.4694374 -0.2139131 5.75
-2.4760141 -2.097578 -0.13115701 6.3333335
-2.6640136 -1.8065305 -0.28965822 4.4000001
-2.4974504 4.2764778 -0.17298551 6.5
-2.4716885 -2.4678738 0.1220761 8.5
-2.5761116 -2.1237817 0.17523931 9
-2.4963155 4.2745123 0.17285745 8.5
-2.4709525 -6.2347665 0.43050933 9.333333
-2.4681695 -2.464359 0.55312324 12
-2.5770319 -2.1229589 0.5595445 12.25
-2.7714643 -1.9244192 0.65578049 13
-2.5757954 4.2739835 0.58364469 10.833334
-2.568337 -6.2408972 1.0088516 11.758375
-2.6203649 -4.9401827 1.0869751 13.031
-2.6566637 -4.7129836 1.0517216 13
-2.5724237 4.27635 1.0303969 13.333333
-2.6168272 -6.1648312 1.4036094 13.42225
-2.6150906 -4.9302354 1.3919549 14.531
-2.637995 -4.7246547 1.3495945 14.5
-2.5049887 4.2729378 1.3270407 15
-2.6482534 -6.1668229 1.7675865 14.883375
-2.1880796 -2.5002561 -0.40788984 3
-2.3368845 -2.330168 -0.40495908 3
-2.3543694 2.3484867 -0.40823209 4
-2.106195 2.5659547 -0.40777588 4
-2.2712815 4.0652351 -0.40751204 5
-2.3578241 -3.2665129 -0.14056888 6.5
-2.1901052 -3.1568549 -0.27225316 5.4666667
-2.3236065 -2.1425519 -0.2516897 4.9000001
-2.2472293 4.3048944 -0.17922366 6.4444447
-2.2354722 4.5957222 -0.20806237 6.333333
-2.1685338 4.9223256 -0.093874522 7
-2.0783715 -6.099277 0.1124584 8.0177498
-2.0798869 -5.6942058 0.10579889 8.0349998
-2.0767264 -5.4026451 0.10101467 8.0345001
-2.0761442 -5.1419525 0.096777901 8.0340004
-2.3544083 -3.2617795 0.1758513 8.75
-2.2318928 -3.1781673 0.1358422 8.5
-2.3688703 -2.3236465 0.19293539 9.166667
-2.2578793 4.2834539 0.1692407 8.5
-2.2376506 4.5982728 0.1786544 8.5
-2.1560173 4.9527869 0.18901835 8.5
-2.326997 -6.2321582 0.4269743 9.333333
-2.3549724 -3.2625611 0.49402621 11
-2.1590078 -3.1549323 0.50116003 11.25
-2.3661938 -2.3125589 0.55402392 12.25
-2.2533677 4.3304777 0.6138503 11.083333
-2.238524 4.6749048 0.60541797 10.833334
-2.1542306 4.9379005 0.57678044 10.555555
-2.3049402 -6.2850084 0.94118589 11.5
-2.2472861 4.3199048 1.0352715 13.5
-2.2366049 4.6536469 1.0659653 13.333333
-2.1505282 4.9491048 0.97131753 12.6
-2.3056884 -6.2870002 1.3017007 13
-2.2491665 4.3334446 1.3081453 15
-2.237184 4.7154851 1.3335727 14.666667
-2.150671 4.9305954 1.3415698 14.5
-2.3348711 -6.2869625 1.7350135 14.75
-1.6524693 -4.3524084 -0.40736324 5
-1.992344 -2.6488049 -0.40692696 3
-1.8850999 2.7371826 -0.40804255 4
-1.6002768 2.9141762 -0.4083544 4
-1.7849381 4.3020225 -0.4075799 5
-1.6406697 -6.1619668 -0.11134003 7
-1.7417479 -5.6992393 -0.10403872 7
-1.7032042 -3.2188718 -0.22301689 5.75
-1.9783779 -3.1263111 -0.22630385 5.75
-1.8731724 4.9872518 -0.22170302 6.3095241
-1.8428359 -6.2027698 0.1129618 8
-1.6879014 -3.2099984 0.15829229 8.75
-1.9565811 -3.1257632 0.1506715 8.666667
-1.8354514 4.9969373 0.18604916 8.5
-1.7656962 -6.2613745 0.57526547 10.022222
-1.7123914 -3.2130494 0.44752535 11
-1.982705 -3.1270647 0.45488724 11
-1.7995253 4.9911723 0.61821604 10.816667
-1.862136 -6.2322297 0.97180009 11.75
-1.8434258 4.9888411 1.0342233 13
-1.8387358 -6.2074976 1.3411057 13.35
-1.8079007 4.9954762 1.3417629 14.583334
-1.8243666 -6.2150517 1.703447 14.866666
-1.3795394 -4.4468575 -0.40747583 5
-1.2660547 -3.0645955 -0.40728047 3
-1.3540342 3.0350165 -0.40803722 4
-1.3823756 4.4461942 -0.40739155 5
-1.3573821 -6.2065306 -0.22199182 6.5
-1.4690927 -5.9274826 -0.32006645 6
-1.4644711 -5.4377432 -0.29515365 6
-1.4672112 -5.105361 -0.27840865 6
-1.4664426 -4.7980628 -0.26295483 6
-1.50152 -3.6707437 -0.13847877 6.5
-1.5378951 -3.4331925 -0.26750699 5.4666667
-1.3687624 5.0084667 -0.19936799 6.4000001
-1.395578 -6.2167726 0.25091603 8.625
-1.5007226 -3.6564724 0.20699999 9
-1.5379235 -3.4469774 0.14526613 8.6000004
-1.4085349 5.0033484 0.16867127 8.4285717
-1.3912921 -6.2848229 0.79048443 11
-1.4988594 -3.649781 0.48445415 11
-1.5553744 -3.3961816 0.51177186 11.4
-1.3854418 5.0067282 0.59228343 10.75
-1.3191433 -6.1986461 1.0038776 12
-1.359683 5.0032144 1.061886 13.285714
-1.3561729 -6.1966972 1.3489109 13.5
-1.4064193 5.0052133 1.3102893 14.571428
-1.354496 -6.1961031 1.6996927 15
-1.0832709 -4.5324535 -0.40774313 5
-0.8029803 -3.2224193 -0.4082261 3
-1.039166 -3.157299 -0.40846977 3
-1.013231 3.1550715 -0.40702316 4
-1.0870718 4.5359292 -0.40801311 5
-1.0322372 -6.2035136 -0.2197358 6.5
-1.0535406 5.0017447 -0.17847277 6.5
-1.0182297 -6.2068243 0.10979193 8
-1.0060997 5.0045695 0.17824872 8.5
-0.99988151 -6.2683921 0.61258674 10.25
-1.0325732 5.0042815 0.5826894 10.75
-1.0503021 -6.199872 0.99607211 12
-1.038282 5.0074229 1.0739719 13.428572
-1.0392791 -6.1971722 1.3362681 13.5
-1.048416 5.0015764 1.3693688 15
-1.037832 -6.1985049 1.6842898 15
-0.63988107 -4.6146793 -0.40791762 5
-0.48716465 -3.2734745 -0.40679884 3
-0.60569865 3.25966 -0.40731388 4
-0.64284176 4.6145706 -0.40784094 5
-0.57846367 -6.2065725 -0.21773769 6.5
-0.65001631 4.9930377 -0.20557979 6.3333335
-0.51556677 -6.2141762 0.20005447 8.416667
-0.5777216 4.9758081 0.16626798 8.4499998
-0.62705481 -6.2677927 0.6511029 10.444444
-0.61202335 4.9692273 0.60153401 10.92
-0.60510582 -6.2155862 0.98936272 12
-0.63800681 4.9866776 1.0941775 13.633334
-0.57846934 -6.2306862 1.3303076 13.5
-0.59578735 4.9781861 1.3445258 15
-0.60040063 -6.2428541 1.6809266 15
-0.20238057 -4.6544943 -0.40770102 5
-0.20120738 -3.3088253 -0.40764025 3
-0.19207346 3.3142691 -0.40778652 4
-0.1861123 4.6586328 -0.40794626 5
-0.15521304 -6.2043977 -0.21690764 6.5
-0.10251932 4.963398 -0.17339809 6.5
-0.20605274 -6.2121029 0.10850162 8
-0.10256325 4.9623785 0.1733755 8.5
-0.19366919 -6.2676558 0.60529554 10.25
-0.10247014 4.9598532 0.56574547 10.75
-0.19961685 -6.2895274 0.99684376 12
-0.10247658 4.9606729 1.0549669 13.5
-0.19965185 -6.2905955 1.338482 13.5
-0.10244139 4.9597797 1.3292439 15
-0.19969308 -6.2918277 1.6870494 15
0.18392071 -4.6513143 -0.40740258 5
0.17550576 -3.3145149 -0.40776438 4
0.20358978 3.3153923 -0.40801272 4
0.20228581 4.6522679 -0.4074623 5
0.17435224 -6.2071075 -0.21697816 6.5
0.25248483 -3.492985 -0.12238755 6.5
0.26524553 -3.0928373 -0.10844575 6.5
0.10761362 4.9615049 -0.17334352 6.5
0.22450139 -6.2025509 0.21673189 8.5
0.25350213 -3.6766813 0.25768876 9.5469999
0.2515173 -3.4460835 0.17924051 9.0117502
0.23941757 -3.1409297 0.24004012 9.6822214
0.10757896 4.9603148 0.17326352 8.5
0.18235235 -6.2701874 0.60539424 10.25
0.24891883 -3.6104 0.57324839 12.047
0.24461137 -3.2356243 0.59215653 12.682334
0.26569521 -3.0980909 0.57699198 12.75
0.10763504 4.9619389 0.5660013 10.75
0.19068313 -6.2871671 0.99643111 12
0.10759332 4.9587245 1.0546432 13.5
0.27338532 -6.2869287 1.3383802 13.5
0.1075952 4.962935 1.3301826 15
0.19605839 -6.2901454 1.6866058 15
0.62596214 3.2599642 -0.40802506 4
0.6399166 4.6158056 -0.40797547 5
0.59503824 -4.4979944 -0.39715829 5
0.52591467 -3.121804 -0.21089816 5.6111112
0.55278015 4.9594789 -0.17442785 6.5
0.55622935 -3.0937712 0.1650777 9
0.55272222 4.9590602 0.1743892 8.5
0.58854389 -3.0843837 0.55534071 12.5
0.59451127 4.9279943 0.58573329 10.861111
0.55247909 4.9571147 1.0611992 13.5
0.44351584 -4.9698052 1.3370501 15.0475
0.60884261 -4.6227808 1.2496991 15.04875
0.55280536 4.9600387 1.3380795 15
0.42321298 -6.2891827 1.6890632 15
0.99491221 -4.488327 -0.40231565 5
0.80505639 -3.221314 -0.40792885 4
1.0406673 -3.1553712 -0.40814608 4
1.0265794 3.1592195 -0.40804321 4
1.0826321 4.5302973 -0.40751067 5
1.0313905 -3.0938921 -0.095186435 6.6666665
1.0005033 4.9619317 -0.17685153 6.5
1.0002983 -3.0942845 0.17066354 9
1.0000721 4.9598007 0.1767946 8.5
1.0296447 -3.0764565 0.62082529 12.911111
1.0099961 4.9574637 0.57722431 10.75
1.0000428 4.9596472 1.0760194 13.5
0.98442847 -4.6220894 1.2667462 15.051001
0.99989486 4.9589119 1.3557982 15
1.3636007 -4.4579654 -0.40797246 5
1.4134746 -2.9948635 -0.4068206 4
1.3538815 3.0402956 -0.40872014 4
1.5900029 4.3750801 -0.4073391 5
1.3668865 4.4723878 -0.40921307 5
1.4417715 -3.0950832 -0.119384 6.5
1.3983356 4.9574728 -0.17999308 6.5
1.3465035 -3.0951865 0.14709704 8.75
1.3988173 4.9590764 0.18003617 8.5
1.4566034 -3.0805731 0.54609239 12.05
1.4312607 4.9580379 0.63460726 11
1.3893179 4.9586287 1.0762637 13.4
1.4164534 -4.6272225 1.2971572 15.0535
1.3983132 4.9573054 1.3804494 15
1.7841741 -4.3052125 -0.40805611 5
1.7424821 -2.8186245 -0.40706316 4
1.983865 -2.656991 -0.40732285 4
1.9284214 2.7056239 -0.40803123 4
1.6633977 2.8661599 -0.40729442 4
1.896524 4.2652059 -0.40841794 5
1.6584649 -3.9141202 -0.37195009 5
1.694882 -3.0957119 -0.24655503 5.5
1.816821 4.9604545 -0.2002195 6.416667
1.7269087 -3.1112111 0.20795515 9.1816673
1.8368964 4.9606404 0.18491672 8.5
1.7423193 -3.0720882 0.62298667 12.52
1.8931162 4.9643803 0.5598256 10.5
1.8267319 -4.6291208 1.1492535 14.05575
1.7959583 4.9605513 1.0257074 13
1.8261217 -4.6278501 1.3334653 15.05575
1.7990445 4.9607911 1.333335 14.583334
2.1838398 -4.1060424 -0.4070743 5
2.1862876 -2.4923134 -0.40724224 4
2.3544941 -2.3498209 -0.40852928 4
2.3507845 2.3476844 -0.40796846 4
2.1152222 2.559469 -0.4079206 4
2.20327 4.1040721 -0.40764517 5
2.0787601 4.9676576 -0.18364617 6.5238094
2.1716976 5.0099483 0.1433727 8.25
2.1814847 5.0080523 0.56844515 10.466666
2.2123091 -4.6335044 1.1857817 14.05775
2.0829706 4.9675174 0.98307294 12.666667
2.2091582 -4.6266494 1.3742149 15.057751
2.1369977 5.010983 1.3540351 14.476192
2.5577509 -3.8951638 -0.407855 5
2.5660584 -2.1074696 -0.40805075 4
2.7331069 -1.8766003 -0.40719616 4
2.7382858 1.8815199 -0.40801829 4
2.5637352 2.106936 -0.40773997 4
2.5745783 3.8884244 -0.40817973 5
2.6022215 -4.4977345 -0.1818399 6.5
2.5448112 5.0030508 -0.14678742 6.75
2.5756283 -4.5002122 0.090515167 8
2.5566878 5.0017443 0.19629322 8.5
2.5401895 5.0016971 0.62948048 10.7
2.5949962 5.0031667 1.0445801 12.75
2.6828744 -4.5936084 1.3271685 14.51185
2.5684304 5.0013499 1.4287053 14.625
2.8027961 -3.7165956 -0.40737975 5
3.0552742 -3.511905 -0.4073658 5
2.9724016 -1.4737909 -0.40792549 4
3.158052 -1.0086337 -0.40735185 4
3.1519558 1.0255797 -0.40718618 4
2.9693804 1.473762 -0.40755641 4
3.0554125 3.5143242 -0.40748867 5
2.8026037 3.7233195 -0.4077847 5
2.964406 -4.4969831 -0.19836472 6.4444442
2.9847369 4.2644506 -0.18956327 6.4583335
2.9138224 4.5629168 -0.22022238 6.333333
2.8750815 4.9567862 -0.13986796 6.8000002
2.9017763 -4.4985852 0.21888438 8.666667
2.989069 4.2685003 0.18989608 8.541667
2.9126334 4.6381974 0.16004863 8.333333
2.8776569 4.9897647 0.19456543 8.4666662
2.9987333 -4.6286173 0.62068689 10.708333
3.0152133 4.2566948 0.57476836 10.638888
2.9111662 4.6044159 0.47663793 10
2.8643515 4.9870849 0.59201354 10.4375
3.0090914 -4.6309314 1.0230093 12.75
2.9726248 4.2401209 1.0620565 13.291666
2.9135158 4.6239185 0.93102491 12.333334
2.8865473 4.993639 1.0175704 12.5
2.9879344 -4.558723 1.3429565 14.416666
3.0068214 4.2735 1.3582023 14.783333
2.9117765 4.6367669 1.3324904 14.333333
2.8753862 4.9696155 1.432119 14.5
3.2961504 -3.2897329 -0.40750343 5
3.5127354 -3.050736 -0.40717053 5
3.2628324 -0.58224601 -0.40767583 4
3.3136213 -0.11414925 -0.40718365 4
3.3223352 0.087072141 -0.40818417 4
3.2617705 0.59042805 -0.40777484 4
3.5195966 3.0587244 -0.40804231 5
3.2978754 3.293364 -0.40779209 5
3.4562094 -4.4927588 -0.24728186 6.25
3.4325523 4.208015 -0.18883745 6.5
3.3651159 -4.5006013 0.18042789 8.416666
3.526648 4.2160101 0.15984453 8.333333
3.5007591 -4.6309867 0.61049879 10.5
3.5307522 4.2133274 0.63658857 10.8
3.4355369 -4.6291614 1.0511558 12.666667
3.5122638 4.2132587 1.0662837 13
3.4540048 -4.5403814 1.4225361 14.5
3.5343051 4.1996155 1.3351711 14.333333
3.7197914 -2.800106 -0.40746221 5
3.9081151 -2.5479639 -0.40834695 5
3.8809805 2.57181 -0.40739855 5
3.7280307 2.8080144 -0.40841731 5
3.7754459 -4.4980111 -0.17047447 6.6666665
3.7318642 4.1941385 -0.1473801 6.75
3.8067975 -4.4984155 0.17968963 8.3912497
3.6527114 4.1936097 0.24267609 8.75
3.6922019 -4.6005564 0.56976986 10.25
3.7505963 4.1868324 0.64023441 10.75
3.7647784 -4.5953355 1.1016793 12.75
3.7995367 4.1879501 1.0993021 13
3.7885008 -4.5429239 1.4753826 14.5
3.7979443 4.1861429 1.462914 14.75
4.1016917 -2.2035015 -0.40751293 5
4.3080616 -1.7729344 -0.40781376 5
4.305922 1.7739476 -0.4076502 5
4.0958657 2.2243447 -0.40795371 5
4.2047977 -4.4987679 -0.19350234 6.5999999
4.1666203 4.1895738 -0.17163791 6.6666665
4.3982477 -4.5014524 0.1098728 8
4.0297742 4.18609 0.23751818 8.666666
4.1702962 -4.5923166 0.58948743 10.208333
4.2400155 4.1851883 0.62594283 10.5
4.1995497 -4.6162348 1.0253907 12.166666
4.2018118 4.1854854 1.047542 12.5
4.2150068 -4.5408597 1.3927609 13.833334
4.154027 4.1860781 1.4343175 14.333333
4.2083788 -4.5416436 1.6597068 15
4.344532 4.1844249 1.6164541 15
4.4480104 -1.3795872 -0.40759635 5
4.5262747 -1.0893734 -0.40734509 5
4.6139655 -0.63545513 -0.40780264 5
4.6527877 -0.20207356 -0.40755287 5
4.6519575 0.18414524 -0.4074595 5
4.6127291 0.62047309 -0.40745819 5
4.5223355 1.0902067 -0.40701222 5
4.4553204 1.3862193 -0.40835953 5
4.5963206 -4.4996648 -0.22458266 6.5
4.5484843 4.188251 -0.25164935 6.3333335
4.5936437 -4.49191 0.22313294 8.5
4.5456643 4.1861382 0.10790121 8
4.6366868 -4.585474 0.49460575 9.666667
4.6363034 4.1839895 0.6028682 10.25
4.6543174 -4.6334553 0.92405397 11.5
4.6392636 4.1874137 0.98994547 12
4.6072655 -4.5429811 1.257905 13
4.6215515 4.1830964 1.3253392 13.5
4.6926208 -4.5436993 1.6292369 14.5
4.6878042 4.1849976 1.6838971 15
5.0020084 -4.501276 -0.27516505 6.3333335
4.9120107 4.1868291 -0.22545961 6.5
4.9551821 -4.5009046 0.23478252 8.5
4.9069524 4.1826663 0.11256602 8
4.9505897 -4.5889077 0.51274914 9.666667
4.9551692 4.1852474 0.64418215 10.333334
5.0057263 -4.631249 0.95881599 11.5
4.9103031 4.1855526 1.0219679 12
4.9733858 -4.5479484 1.3101256 13
4.9717216 4.184689 1.3417499 13.333333
4.9941597 -4.5447464 1.7540832 14.777778
5.0521245 4.1886859 1.6967458 14.75
5.3888321 -4.5058069 -0.22186208 6.5999999
5.3738112 4.1938515 -0.23878868 6.5
5.3838573 -4.5025315 0.20386253 8.3450832
5.4090767 4.1906471 0.21642686 8.3999996
5.3980484 -4.6314597 0.70611542 10.333333
5.3724189 4.18679 0.54442298 9.7777777
5.3018413 -4.6310973 1.1150678 12
5.3277907 4.1808834 0.97651517 11.6
5.3898921 -4.6385779 1.3824718 13
5.4118352 4.1851668 1.4300449 13.4
5.3867044 -4.6321115 1.7459985 14.4
5.4012518 4.215466 1.771268 14.77725
5.8599572 -4.5031481 -0.38734365 6
5.7849545 4.2246919 -0.20893003 6.6666665
5.810668 -4.5879312 0.30200559 8.6904173
5.7782555 4.2255516 0.20862371 8.333333
5.884584 -4.633575 0.65533453 10
5.7668185 4.2237544 0.75166613 10.5
5.7547169 -4.634593 1.0602697 11.583334
5.749794 4.2227321 1.130021 12
5.906311 -4.6346049 1.4594511 13
5.7494221 4.2225347 1.3867286 13
5.8538194 -4.6329241 1.8616354 14.5
5.7764502 4.2262034 1.8292167 14.666667
6.2885218 -4.4740205 -0.40449646 6
6.0472374 4.2247419 -0.21453552 6.6666665
6.2161632 -4.5009613 0.13398148 8.0719995
6.0584769 4.2225542 0.25789821 8.5
6.1424532 -4.6336546 0.53886098 9.5
6.0493975 4.223721 0.64552689 10
6.1915455 -4.6325474 0.94956762 11
6.0570045 4.2290444 1.038465 11.5
6.1665239 -4.6323471 1.2677081 12.166666
6.0424514 4.2263985 1.4333842 13
6.1538086 -4.6317458 1.778318 14
6.0630455 4.2257566 1.8432281 14.5
6.1503487 -4.6292353 2.0627973 15
6.5321984 -4.2083797 -0.40728724 6
6.7054486 -3.9400761 -0.40762237 6
6.7033339 3.9418519 -0.40754765 6
6.5413122 4.217319 -0.40791452 6
6.5550146 -4.4984579 0.1387966 8.0727501
6.5669417 -4.6327853 0.6106931 9.666667
6.5941024 -4.6329021 0.98961133 11
6.568543 -4.6339378 1.4670641 12.666667
6.6145358 -4.6327662 1.8647103 14
6.6044116 -4.6336884 2.1621563 15
6.8301034 -3.7111082 -0.40740368 6
6.9536815 -3.4671264 -0.40724722 6
7.0902724 -3.1930413 -0.40757781 6
7.0967541 3.1986656 -0.40798718 6
6.9704194 3.4783268 -0.40827096 6
6.8417053 3.7203531 -0.40814435 6
7.0605569 -4.5048242 0.14621903 8.0737495
7.0291748 -4.6332345 0.56011355 9.3999996
7.0492053 -4.6334243 1.0358528 11
6.9952188 -4.6362257 1.3293332 12
7.0881729 -4.6340671 1.8007469 13.5
7.0911222 -4.6359763 2.2702308 15
7.2452831 -2.8198702 -0.40751252 6
7.3720107 -2.4707079 -0.40749428 6
7.4648166 -2.165266 -0.40738642 6
7.5760341 -1.7834133 -0.40794846 6
7.5566459 1.8317775 -0.40759903 6
7.4325047 2.2874599 -0.40754354 6
7.3765049 2.4748964 -0.4077706 6
7.2524047 2.8254507 -0.40794739 6
7.6594863 -1.3809036 -0.40793195 6
7.7057896 -1.0910132 -0.40787417 6
7.7550273 -0.62730831 -0.40785223 6
7.7773566 -0.19426733 -0.40773556 6
7.7853904 0.16450457 -0.40814441 6
7.7484903 0.62937951 -0.40751523 6
7.6890388 1.0912836 -0.40699965 6
7.653338 1.3824295 -0.40761957 6
10.638588 -5.6655321 -0.21038164 7
10.771124 -5.6668644 0.21246733 8
10.797798 -5.0708942 0.20824879 8
10.767408 -5.6648726 0.63767052 9
10.771671 3.1771066 0.58860499 9
10.762286 3.4164743 0.5918321 9
10.770341 3.7852235 0.59834957 9
10.784778 4.188736 0.60645634 9
10.77553 -5.6691623 1.0653102 10
10.729015 2.6814876 0.96759069 10
10.74352 2.9746392 0.97543693 10
10.741332 3.226994 0.98128802 10
10.787733 3.9032552 1.0037352 10
10.774903 -5.6688428 1.4950005 11
10.722123 2.6797643 1.357066 11
10.742367 3.0037086 1.3698199 11
10.778119 3.8997796 1.4074091 11
10.797077 4.596621 1.4409096 11
10.777216 -5.6700816 1.9288687 12
10.726758 2.6809223 1.7512796 12
10.745955 3.0630341 1.7700468 12
10.783053 3.9015682 1.8162928 12
10.791209 4.5514469 1.8550277 12
10.772233 -5.6674438 2.3661418 13
10.739478 2.9687417 2.1661255 13
10.745542 3.2282574 2.1810236 13
10.784531 3.902106 2.2293789 13
10.556299 -5.661664 2.7656488 14
10.536224 -5.5885587 3.1959059 15
10.585301 -5.0613708 3.1442957 15
10.647609 -4.6987314 3.1186371 15
10.672098 -4.2371325 3.0771847 15
10.687399 -3.782573 3.038022 15
10.703408 -3.4021161 3.0096016 15
10.721754 -2.9796674 2.982363 15
10.736959 -2.4894409 2.9534388 15
10.774263 -2.228281 2.9482622 15
10.615509 -6.116888 3.2830694 15.075
10.568637 -5.7881079 3.2289598 15.03775
10.838539 -5.4046626 -0.21140733 7
10.84248 -4.9378638 -0.20795742 7
10.872045 -4.5176034 -0.20550118 7
10.89373 -4.0622854 -0.20293808 7
10.892995 -3.7525883 -0.20109317 7
10.920323 -3.4377429 -0.19983524 7
10.93996 -2.9758685 -0.19790284 7
10.96363 -2.5419357 -0.19643344 7
10.981272 -2.2185516 -0.195544 7
10.988291 -1.7918326 -0.19433817 7
11.003721 -1.332822 -0.19345827 7
11.010645 -1.0535594 -0.19305933 7
11.018498 -0.62693739 -0.19264425 7
11.04501 -0.18338479 -0.19279936 7
11.069621 0.094672196 -0.19321568 7
11.077922 0.63406503 -0.19368449 7
11.088995 1.0648046 -0.19443528 7
11.097082 1.3477669 -0.19510213 7
11.058969 1.8061717 -0.19558918 7
10.999628 2.2259049 -0.19587497 7
11.015922 2.5577877 -0.19737527 7
11.027517 3.0037146 -0.19949374 7
11.039373 3.3973963 -0.20158672 7
11.061223 3.7113857 -0.20363444 7
11.080173 4.20046 -0.20683388 7
11.102071 4.726459 -0.21059069 7
11.111036 5.0644078 -0.21311985 7
11.132723 5.5557895 -0.21715903 7
10.818129 -5.8311939 0.21453843 8
10.84278 -5.4394932 0.21177317 8
10.84387 -4.9933977 0.2084159 8
10.865063 -4.7079082 0.20671536 8
10.875787 -4.3808899 0.20469542 8
10.897729 -3.8522253 0.20179875 8
10.916119 -3.4964504 0.20010659 8
10.940247 -3.0301766 0.19819869 8
10.956454 -2.5986195 0.19658782 8
10.974068 -2.1978967 0.19539444 8
10.989935 -1.7636378 0.19433065 8
11.002191 -1.3432153 0.19351023 8
11.023363 -1.0920705 0.19338822 8
11.011664 -0.59471363 0.19253364 8
11.052558 -0.20206434 0.19299494 8
11.067924 0.19669712 0.19326375 8
11.064426 0.51407111 0.1933732 8
11.077384 0.95148361 0.1941237 8
11.098976 1.3954916 0.19530088 8
11.103072 1.8500208 0.19652417 8
10.999115 2.2801735 0.19610813 8
10.998718 2.5004823 0.19691658 8
11.02451 2.9836104 0.19941416 8.0326662
11.047561 3.4021761 0.20183024 8.0985003
11.064506 3.7147498 0.20379126 8.0992498
11.080615 4.1385317 0.20652957 8.1002502
11.104002 4.6206694 0.2100008 8.1012497
11.115207 5.0689144 0.21330856 8.1022501
11.129592 5.3457842 0.21555734 8
11.149549 5.8407097 0.21974063 8
10.817721 -5.8309832 0.64408612 9
10.835772 -5.3917985 0.63436061 9
10.848348 -4.9954386 0.62598133 9
10.870495 -4.6027689 0.6187312 9
10.882998 -4.2672276 0.61267495 9
10.900412 -3.8481703 0.60592461 9
10.91325 -3.4713378 0.60022449 9
10.934644 -3.0286145 0.59473526 9
10.954767 -2.5981996 0.59011066 9
10.969739 -2.1970184 0.58638585 9
10.984141 -1.7626297 0.58311379 9
11.004655 -1.3435223 0.58108741 9
11.016665 -1.0913957 0.58023727 9
11.013899 -0.59484565 0.57814014 9
11.0538 -0.20205513 0.57947147 9
11.067605 0.19668345 0.58019561 9
11.051822 0.50241077 0.57984895 9
11.077291 0.95149517 0.58278739 9
11.075283 1.3621427 0.58487207 9
11.099215 1.8472413 0.58977079 9
10.997579 2.2446077 0.588296 9
11.016273 2.5190663 0.59228915 9
11.025576 2.9845254 0.59875607 9.0489998
10.802869 4.3445363 0.6102643 9
10.807706 4.6065655 0.61575699 9
11.109447 5.0662169 0.64000529 9.1022501
11.134317 5.4466658 0.64969176 9
11.16026 5.8640575 0.66075331 9
10.805718 -5.8244944 1.0740232 10
10.838022 -5.4472332 1.0613326 10
10.827747 -5.0547075 1.0455338 10
10.870645 -4.6027961 1.0329013 10
10.891112 -4.1761031 1.0205885 10
10.906609 -3.7882936 1.0102192 10
10.916271 -3.4965053 1.0029169 10
10.938875 -3.0396857 0.99345416 10
10.951795 -2.5975151 0.98484033 10
10.970016 -2.1971152 0.97891402 10
10.994861 -1.747871 0.97415662 10
11.000458 -1.2950407 0.96912724 10
11.006977 -1.0532411 0.96745753 10
11.012216 -0.60396791 0.96501577 10
11.050089 -0.20199004 0.9670189 10
11.069077 0.19669403 0.96868092 10
11.055576 0.51363719 0.96835142 10
11.076935 0.95150733 0.97284698 10
11.098754 1.3954549 0.97876394 10
11.122102 1.8116299 0.98596847 10
10.995024 2.1581898 0.98043418 10
11.007874 2.5690684 0.98902208 10
10.816151 3.4184372 0.99250042 10
10.825084 3.7492576 1.0023611 10
10.850575 4.2470088 1.0195593 10
10.807355 4.6226387 1.0284506 10
10.827088 5.0615025 1.0457195 10
11.134315 5.4168835 1.0833571 10
11.14863 5.8402438 1.1011704 10
10.829204 -5.8371758 1.5105922 11
10.836017 -5.391871 1.4862343 11
10.822663 -5.032999 1.4656295 11
10.870942 -4.6029634 1.4496436 11
10.885679 -4.2682724 1.4357471 11
10.900451 -3.8532023 1.419763 11
10.921835 -3.3479891 1.4028409 11
10.939535 -2.8868105 1.3892733 11
10.952741 -2.5977373 1.3822691 11
10.966741 -2.2728777 1.3752474 11
10.985714 -1.80574 1.3672863 11
11.002034 -1.3638629 1.3613181 11
11.01862 -0.95842934 1.3582606 11
10.99746 -0.57244444 1.35224 11
11.04642 -0.2019444 1.3566867 11
11.069268 0.19671179 1.3594931 11
11.050221 0.50229502 1.3582788 11
11.079331 0.9517079 1.3656113 11
11.083206 1.3743711 1.3713779 11
11.120252 1.781283 1.3829745 11
10.989488 2.1539419 1.375193 11
11.003267 2.6133595 1.3887087 11
10.82508 3.3812931 1.3925683 11
10.830256 3.7894943 1.4089612 11
10.848906 4.2489328 1.4307747 11
10.839066 4.6253037 1.4470795 11
10.832091 5.0528312 1.4676985 11
11.135489 5.4174247 1.5205665 11
11.143793 5.8376746 1.5447345 11
10.815508 -5.8297815 1.9461008 12
10.834955 -5.4355164 1.9200839 12
10.825765 -5.0344539 1.8911086 12
10.872616 -4.7111773 1.8768721 12
10.878521 -4.3820276 1.8577037 12
10.906184 -3.8449602 1.8318453 12
10.92899 -3.3449759 1.8104651 12
10.932047 -2.9733572 1.7945197 12
10.954051 -2.5980387 1.7832482 12
10.968946 -2.1968517 1.7719781 12
10.984221 -1.8949255 1.7655314 12
11.000643 -1.4468979 1.7575957 12
11.015183 -1.0912488 1.7532847 12
11.011015 -0.62251633 1.7469856 12
11.053844 -0.20204015 1.7512107 12
11.071704 0.19672298 1.7540399 12
11.052223 0.50241667 1.7524056 12
11.081471 0.95189929 1.7618861 12
11.085071 1.3746325 1.7692825 12
11.126132 1.7822512 1.7848874 12
10.989734 2.153954 1.773944 12
11.01522 2.5967786 1.7925884 12
10.819784 3.4578574 1.7991803 12
10.830724 3.789674 1.8175434 12
10.854819 4.2487106 1.8464518 12
10.812667 4.6892643 1.866757 12
10.831295 5.0525002 1.8930944 12
11.132141 5.4158778 1.9608426 12
11.150577 5.8412514 1.9938169 12
10.822041 -5.833293 2.3898275 13
10.837202 -5.4468575 2.3578513 13
10.831284 -5.056427 2.323688 13
10.866322 -4.7084436 2.3020892 13
10.876673 -4.3812609 2.2795093 13
10.900051 -3.8530307 2.2475326 13
10.921092 -3.4126763 2.2242885 13
10.93832 -2.9899063 2.2044268 13
10.952734 -2.5977335 2.1882584 13
10.970061 -2.1971052 2.1749117 13
10.98515 -1.7628413 2.1629071 13
11.006201 -1.3540328 2.1556845 13
11.022547 -0.94768417 2.1508048 13
11.004556 -0.56895781 2.1420691 13
11.049352 -0.20193422 2.1483271 13
11.07186 0.19675581 2.152704 13
11.073255 0.57172918 2.1554849 13
11.105679 1.0006664 2.1676805 13
11.097639 1.3761021 2.1738391 13
11.067695 1.7997757 2.1799142 13
10.994754 2.1756697 2.1788518 13
11.020765 2.6379859 2.2028868 13
10.819767 3.3962779 2.2044487 13
10.830408 3.7895906 2.2305446 13
10.850072 4.2468371 2.2650943 13
10.810846 4.6241479 2.2856905 13
11.020615 5.0054717 2.3529518 13
10.853039 -5.0478873 2.7637398 14
10.869335 -4.6022663 2.7253034 14
10.889872 -4.1756234 2.6928298 14
10.90118 -3.7761919 2.6636961 14
10.919127 -3.497386 2.647167 14
10.915046 -3.0157831 2.614809 14
10.923965 -2.5908868 2.5921934 14
10.941025 -2.2866719 2.5806434 14
10.955843 -1.8008189 2.5639186 14
10.978803 -1.2924792 2.5522985 14
10.989933 -1.0070226 2.5481071 14
11.025261 -0.63516718 2.5499675 14
11.054464 -0.20204243 2.5527747 14
11.072003 0.1967283 2.5568244 14
11.072927 0.51449174 2.5592895 14
11.07271 0.95115823 2.5661619 14
11.10795 1.3966804 2.5848961 14
11.068428 1.8646727 2.5916317 14
11.002702 2.2264876 2.5918429 14
11.013886 2.499094 2.6075263 14
11.029392 2.9645379 2.6370857 14
11.04533 3.4046748 2.6686091 14
11.060424 3.793901 2.6997554 14
11.081468 4.2568312 2.7408168 14
11.09043 4.6150599 2.7735353 14.10125
11.130232 5.426403 2.4070256 13
11.150128 5.8410511 2.446847 13
10.83396 -5.5616078 2.8116922 14
10.829306 -1.985271 2.9503443 15
10.907223 -1.4418633 2.9485159 15
10.95844 -1.0022016 2.9488473 15
10.990706 -0.5605678 2.9492083 15
11.000178 -0.19490355 2.9481895 15
11.00378 0.15555994 2.9489944 15
10.990703 0.5796175 2.9493904 15
10.960095 1.0059055 2.9493687 15
10.922858 1.2969097 2.9474871 15
10.921812 1.7992307 2.9666317 15
10.939445 2.328403 2.9970222 15
10.947083 2.5612471 3.0126319 15
11.035378 2.9710853 3.0626135 15
11.050155 3.4061177 3.0985739 15
11.063282 3.7948773 3.1341827 15
11.079866 4.2276859 3.1778016 15
11.112185 4.9760685 2.8110538 14.051001
11.130322 5.3466997 2.8510163 14
11.149277 5.8405781 2.9059236 14
11.089995 4.6148562 3.2188711 15.10125
11.115891 5.0222807 3.2685571 15.034
11.130698 5.3923426 3.314203 15
11.142406 5.8369265 3.3705704 15
11.467074 6.1113229 -0.2267798 7
11.445828 6.1000009 0.22642557 8
11.468891 6.1122904 0.68113273 9
11.454541 6.1046424 1.1356269 10
11.458364 6.1066809 1.5942962 11
11.46585 6.1106696 2.0578771 12
11.455567 6.1051884 2.5232959 13
11.456758 6.1058245 2.9972599 14
11.457069 6.1059899 3.4787555 15
18.773682 12.214661 -0.39089811 7
18.678253 12.603177 -0.39325526 7
18.790031 12.203072 0.3911404 8
18.666069 12.61811 0.39334258 8
18.787756 12.201602 1.1741245 9
18.661064 12.648887 1.1815614 9
18.799807 12.187099 1.9602309 10
18.659491 12.64781 1.9722757 10
19.132318 11.035194 -0.38547295 7
19.021248 11.400257 -0.38703147 7
18.893867 11.846881 -0.38921049 7
19.173763 10.888463 0.38493791 8
19.028406 11.361567 0.38691226 8
18.898495 11.827868 0.38921565 8
19.163189 10.924958 1.1561068 9
19.040155 11.368705 1.162293 9
18.895521 11.82607 1.168306 9
19.137335 10.995567 1.9310836 10
19.016193 11.419062 1.9407026 10
18.899481 11.806415 1.9496878 10
19.230288 10.666169 -0.38379025 7
19.331486 10.385775 0.38310295 8
19.254459 10.616446 0.38385132 8
19.311806 10.375202 1.1489652 9
19.251635 10.614926 1.1522149 9
19.200741 10.818764 1.155073 9
19.330164 10.385065 1.9198507 10
19.251081 10.614622 1.9233969 10
20.127819 -11.827153 -0.40749761 7
20.413267 -11.314236 -0.40737045 7
26.347843 -15.182099 0.5308255 8.0749998
26.169567 -14.500525 0.52226496 8.0754995
26.332344 -15.173175 1.5927904 9.0749998
26.157974 -14.494106 1.5673267 9.0754995
26.543638 -15.893498 0.54006016 8.0745001
26.773685 -16.771994 1.6557863 9.0740004
26.542397 -15.892762 1.6213827 9.0745001
