# .PCD v0.7 - Point Cloud Data file format
VERSION 0.7
FIELDS x y z intensity
SIZE 4 4 4 4
TYPE F F F F
COUNT 1 1 1 1
WIDTH 104
HEIGHT 1
VIEWPOINT 0 0 0 1 0 0 0
POINTS 104
DATA ascii
-4.8336558 0.67703176 0.25313258 9.1759996
-2.4340162 -2.4758618 0.79155129 13.02275
-2.432991 -2.5939651 0.89875221 13.690084
-2.3535991 -2.7081258 0.88477635 13.5245
-0.18560022 -3.4781113 0.66893518 12.0435
-0.12389823 -3.6116052 0.82407349 13.044
-0.11887302 -3.4838665 0.92378002 14.044
0.73823696 -3.9242244 0.62683052 12
0.74343896 -3.9088192 0.98197711 13.5
1.0177521 -4.0618529 0.5839628 11.507357
0.82352448 -3.9603333 0.63509017 12
1.0033208 -4.0552182 1.0159236 13.410299
0.81074208 -3.9505649 0.99543542 13.5
1.332647 -3.8059042 0.35119343 10
1.3547419 -3.7186069 0.59346581 11.638889
1.426017 -3.6619029 0.97356701 13.539062
1.7908653 -3.614255 0.7755028 12
1.8989569 -3.4703267 0.64110667 11.611111
1.712569 -3.6747301 1.0006422 13.5575
1.8142987 -3.5489008 0.98967224 13.541667
2.2205412 -3.0058939 -0.06292478 7
2.0513911 -3.2729869 0.20011421 9
2.2322462 -3.0537577 0.10988498 8.333333
2.057929 -3.2675579 0.57271296 11.5
2.2611191 -3.0164959 0.62015218 11.791667
2.059046 -3.255511 1.0215751 14
2.2687836 -2.9930892 0.9962154 14
2.6060736 -2.5278349 -0.06107619 7
2.5251439 -2.6959643 0.2145301 9.166667
2.5612013 -2.6396339 0.66157663 11.972222
2.4127781 -2.8130059 0.98237246 14
2.5891905 -2.5967805 0.97243071 14
2.952255 -2.1244481 -0.124421 6.5
3.1252043 -1.9077868 -0.1250325 6.5
3.188678 0.17398475 -0.1506303 5.125
2.8681824 -2.2647705 0.25422645 9.5
3.132936 -1.928528 0.25593874 9.5
3.0968657 0.20262605 0.25702554 9.2527227
3.1449828 0.49260235 0.38678062 10
2.8618739 -2.2641006 0.76661837 12.5
3.1273563 -1.9276925 0.7717647 12.5
3.1038375 0.21720733 0.62185025 11.34375
3.0338817 0.59868968 0.62104285 11.452382
2.8578448 -2.2553909 0.96537673 14
3.1237526 -1.9252687 0.97298855 14
3.0318587 0.23604383 0.80488235 13
3.1392806 0.48441747 0.84107 13
3.5474129 -0.52722901 -0.81596029 1
3.5365238 -1.3921554 -0.49522606 3.7333333
3.3777716 0.099445567 -0.58694106 1.525
3.3022697 -1.6769934 -0.25437686 5.5
3.4459019 -1.4963477 -0.12822472 6.5
3.3793809 0.090117648 -0.086789638 5.75
3.3744924 -1.6161567 0.14294699 8.6000004
3.5350175 -1.4111286 0.11082017 8.333333
3.3526821 0.11969531 0.20706524 8.25
3.3778124 -1.6124365 0.76387298 12.333333
3.49331 -1.464678 0.5596379 11.505555
3.5236187 0.037317291 0.73978531 11.5
3.3322148 -1.654163 0.91784573 13.5
3.5384629 -1.3929201 1.0081607 14
3.5915051 -0.0022574754 0.9522177 13
3.4395168 0.064607739 0.911722 13
3.6340175 -1.2605497 -0.53253156 3.5
3.7846 -1.0015225 -0.60125577 3.0833333
3.8638189 -0.58179438 -0.64424145 2.4375
3.8562119 -0.12059245 -0.60193181 2
3.6098926 0.018507514 -0.69229352 1
3.6386652 -1.2529643 -0.13135424 6.5
3.7869959 -1.0056729 -0.23890516 5.7222228
3.9226232 -0.60605264 -0.22282143 5.5333333
3.897876 -0.14012192 -0.20122822 5
3.6165457 0.010817908 -0.28009626 4.25
3.6569705 -1.2618974 0.15654632 8.666667
3.855906 -0.99735451 0.1384705 8.5
3.914851 -0.63793117 0.19289973 8.75
3.8973448 -0.11685859 0.22965716 8.1833324
3.6296055 0.012087813 0.25239807 8.5
3.6520057 -1.2613636 0.57293415 11.5
3.8571398 -1.0014626 0.54381913 11.333333
3.8830996 -0.6205985 0.5507369 11.219999
3.7599931 -0.060187493 0.62749994 10.806666
3.6478209 -1.2566782 1.0229479 14
3.8603351 -0.97744131 0.99472165 13.583334
3.913501 -0.58697307 1.0067848 13.3
3.8487778 -0.11865827 0.98457772 12.75
4.0043535 -0.77821589 -0.492888 4
4.0795178 -0.25553724 -0.60250169 2.25
4.0896091 -0.26831543 -0.17568728 5.25
4.0245128 -0.80256504 0.35730991 10
4.0170336 -0.77595657 0.14223394 8.5
4.0921059 -0.23914607 0.23740369 8.166667
4.0144839 -0.80274397 0.57021081 11.5
4.0039134 -0.59598309 0.63621926 11.5
4.1055851 -0.28971925 0.57377189 10.5
4.0053329 -0.79582852 0.93172872 13
4.0922084 -0.28015578 1.0127141 12.5
7.0681896 0.67765838 1.8905113 15.092751
7.0454483 0.92157835 1.8918037 15.09375
7.5127397 0.78156066 1.190164 11
7.3351192 0.91504449 1.0189402 10.80911
7.5112157 0.78271943 1.4577178 12
7.3504272 0.91982573 1.4297019 12.364667
7.9303923 0.70727396 1.5366906 13.0925
