# .PCD v0.7 - Point Cloud Data file format
VERSION 0.7
FIELDS x y z intensity
SIZE 4 4 4 4
TYPE F F F F
COUNT 1 1 1 1
WIDTH 1060
HEIGHT 1
VIEWPOINT 0 0 0 1 0 0 0
POINTS 1060
DATA ascii
-14.050049 9.8247833 -0.29919997 7
-14.168719 10.265658 -0.30535215 7
-14.334864 10.832363 -0.31357011 7
-14.051115 9.8254938 0.29914728 8.1625004
-14.175207 10.270324 0.3054153 8.1619997
-14.33381 10.831524 0.31346852 8.1615
-14.054523 9.827878 0.89847118 9.1625004
-14.184689 10.277196 0.91768759 9.1619997
-14.312158 10.815153 0.93983245 9.1615
-14.044724 9.8210201 1.4988735 10.1625
-14.175581 10.270594 1.5310159 10.162
-14.323797 10.823952 1.5702449 10.1615
-13.827497 8.9944525 -0.28786916 7
-13.928969 9.3964396 -0.29322273 7
-13.627755 0.87208456 0.23821466 8
-13.826856 8.9940004 0.28778294 8.1634998
-13.926834 9.3949623 0.29310372 8.1630001
-13.615781 0.87132812 0.71466053 9
-13.621391 0.87167513 1.1935556 10
-13.819948 8.9895058 0.86369801 9.1634998
-13.932828 9.3990078 0.88048536 9.1630001
-13.82513 8.992877 1.44241 10.1635
-13.943711 9.406352 1.471043 10.163
-13.622211 0.87173742 1.6751899 11
-13.820258 8.989707 2.0236292 11.1635
-13.937119 9.4019032 2.0635507 11.163
-13.571408 1.0740258 -0.23755686 7
-13.44971 1.4055051 -0.23596202 7
-13.584249 1.0293356 0.23765174 8
-13.475319 1.3965979 0.23633482 8
-13.56845 1.0282006 0.71276921 9
-13.479894 1.3970866 0.70988679 9
-13.570472 1.0283234 1.1900835 10
-13.474914 1.3965228 1.1846561 10
-13.577875 1.0288155 1.6711274 11
-13.477856 1.3968838 1.6629636 11
-12.523148 4.2011352 -0.23049422 7
-12.619681 4.5888867 -0.23431137 7
-12.529878 4.9406009 -0.23503363 7
-12.439643 5.2944293 -0.23590782 7
-12.521249 4.1957889 0.23038025 8
-12.606001 4.6438475 0.23435354 8
-12.532271 4.8929362 0.23469132 8
-12.443633 5.2225356 0.2354219 8
-12.521963 4.1960397 0.69180888 9
-12.608561 4.6248088 0.70348078 9
-12.532539 4.8930106 0.70472896 9
-12.431695 5.2501998 0.70690012 9
-12.518839 4.1949053 1.1546254 10
-12.609916 4.6332898 1.1747657 10
-12.536119 4.8944345 1.1768223 10
-12.431042 5.2662935 1.1806 10
-12.408171 3.7725859 1.591596 11
-12.522776 4.1960225 1.6209313 11
-12.602597 4.5907545 1.646089 11
-12.533848 4.8935132 1.651305 11
-12.444465 5.2228584 1.6563483 11
-12.471512 3.9983056 2.0733068 12
-12.522073 4.1768217 2.0896757 12
-12.017658 2.3267484 -0.2135805 7
-12.071404 2.5477145 -0.21526542 7
-12.197585 2.9951069 -0.21917334 7
-12.319818 3.5210302 -0.22357278 7
-12.395937 3.7685833 -0.22607024 7
-12.356463 5.5053644 -0.23604754 7
-12.274866 5.8432207 -0.23723114 7
-12.173122 6.2259626 -0.23858891 7
-12.084134 6.5689373 -0.2400177 7
-12.007471 2.3456614 0.21340942 8
-12.067153 2.5047536 0.21498099 8
-12.179021 2.9359598 0.21854413 8
-12.307705 3.4067614 0.22277181 8
-12.383369 3.6969662 0.22543642 8
-12.36919 5.5110903 0.23622529 8
-12.289519 5.7997661 0.23706712 8
-12.195073 6.1432257 0.23821661 8
-12.064586 6.6374416 0.24022979 8
-12.019359 2.3479965 0.64144355 9
-12.071244 2.5055981 0.64574683 9
-12.178466 2.9358246 0.65619761 9
-12.309298 3.4071803 0.66900879 9
-12.391058 3.6992524 0.67734402 9
-12.367329 5.5102334 0.70921326 9
-12.289177 5.8122463 0.71211749 9
-12.191331 6.1668305 0.71567494 9
-12.065931 6.638133 0.72142428 9
-12.023752 2.3488445 1.0712267 10
-12.064893 2.5042877 1.0774518 10
-12.180983 2.9364355 1.0956922 10
-12.313781 3.4084232 1.1172602 10
-12.386779 3.6979868 1.1303779 10
-12.366476 5.5098734 1.1838909 10
-12.289511 5.8123708 1.1888508 10
-12.191006 6.1666932 1.1947281 10
-12.116428 6.4293227 1.1994791 10
-12.021093 2.3483441 1.5030755 11
-12.069442 2.5052164 1.5127144 11
-12.181269 2.9364989 1.5377802 11
-12.307837 3.4067824 1.5672563 11
-12.061256 6.6617813 1.2049748 10
-12.023257 2.3696642 1.9398664 12
-12.065118 2.535934 1.9516428 12
-12.186944 2.9705014 1.9858296 12
-12.366249 5.5097828 1.661496 11
-12.28919 5.7996001 1.6677681 11
-12.19777 6.1616254 1.6772047 11
-12.064168 6.6371756 1.6900027 11
-12.307581 3.4066904 2.0216296 12
-12.398279 3.7240894 2.049329 12
-11.87279 1.4420865 -0.20867787 7
-11.871249 1.786728 -0.20946953 7
-11.952065 2.1069195 -0.2117563 7
-11.954006 7.0271649 -0.24198002 7
-11.868379 7.4393682 -0.24443011 7
-11.830209 1.4669992 0.2079367 8
-11.867477 1.7711396 0.20931087 8
-11.975718 2.1838281 0.21234545 8
-11.961451 7.0179567 0.24193773 8
-11.836991 7.4800067 0.24428201 8
-11.830636 1.4670587 0.62439716 9
-11.863036 1.7705195 0.62826633 9
-11.974036 2.1835406 0.63752425 9
-11.962945 7.0188184 0.72656399 9
-11.839386 7.4815402 0.73366159 9
-11.837532 1.4678831 1.0429847 10
-11.866054 1.7709267 1.0491028 10
-11.972063 2.1831796 1.0641166 10
-11.883586 1.4433997 1.4690121 11
-11.862493 1.7537322 1.4716511 11
-11.974803 2.1836839 1.4937714 11
-11.959222 7.0166979 1.2125622 10
-11.838544 7.48104 1.2247 10
-11.87676 1.8178924 1.9019812 12
-11.974924 2.1941278 1.927209 12
-11.959471 7.0167975 1.7017974 11
-11.839062 7.4813476 1.7188737 11
-7.6518745 1.4145426 -0.40750375 6
-7.6129861 -6.1560693 2.2591136 14.0195
-7.5846519 1.7870554 -0.40810493 6
-7.4797511 2.1709495 -0.40789548 6
-7.3792257 2.4741609 -0.40758631 6
-7.2583461 2.8255374 -0.40793705 6
-7.349195 -6.1491218 2.2110753 14.02
-7.31987 -4.9309645 2.1998262 14.517
-7.3445988 -4.6837206 2.171387 14.51625
-7.4238577 -6.2110243 2.5924406 15.02
-7.1045785 3.1998584 -0.40809092 6
-6.9614744 3.4709976 -0.40738952 6
-6.8035994 3.770695 -0.40740335 6
-6.5932965 4.1460481 -0.40796736 6
-6.2830753 4.6057038 -0.40804866 6
-6.189786 -6.3805656 0.46563047 9.0229998
-6.1814313 -6.3719387 2.2129128 14.523
-5.8459477 -6.3790855 0.45323417 9.0237503
-5.7506785 -6.3824005 1.9823389 14.024
-5.8765397 -6.3767824 2.2148552 14.690333
-5.2581124 0.22326948 -0.091765307 7
-5.3604312 4.3008823 -0.24000457 6.5
-5.4010763 0.27596188 0.18409373 8.4750004
-5.4655323 4.2971311 0.21901196 8.3999996
-5.4663172 -6.3814278 0.44013849 9.0247498
-5.3926473 0.26886967 0.56697369 10.5
-5.3767319 4.2952299 0.64246374 10.166667
-5.4568982 4.2972636 1.036779 11.75
-5.2045736 4.2966685 1.5569391 14
-5.267488 -4.5580659 1.6070063 14.0205
-5.2404451 4.2975392 1.8145233 15
-5.4622655 -6.3766694 2.2486813 15.02475
-4.8696785 -0.11296981 -0.084923305 7
-4.9182286 4.2392731 -0.18803255 6.6666665
-4.9225636 -4.9056778 0.36395839 9.0225
-4.9004912 -0.15071353 0.18851116 8.6000004
-4.9266343 4.2370434 0.18834968 8.333333
-4.9778771 -6.3718834 0.423574 9.026
-4.9051013 -0.14418669 0.55876648 10.75
-4.8642826 4.2119751 0.60076284 10.166667
-4.9876056 4.274663 0.96112496 11.666667
-4.8721147 -4.8553348 1.5868881 14.0225
-4.9567943 -4.6187506 1.5631742 14.0215
-4.9946537 4.2544312 1.3624989 13.375
-4.9312558 -4.9143472 1.864154 15.0225
-5.0087576 -4.6673117 1.8333039 15.0215
-5.0100222 4.2794895 1.7640854 15
-5.0718493 -6.3824596 2.1833327 15.02575
-4.5810499 -0.095850959 -0.40033764 5
-4.6486063 0.28927892 -0.40694165 5
-4.6266856 0.63787973 -0.40835181 5
-4.5466008 1.0944682 -0.40859705 5
-4.4598365 1.3829765 -0.40809533 5
-4.4059196 -0.5139128 -0.077334046 7
-4.5786362 -0.27477363 -0.18299776 6.3333335
-4.6048102 4.2129726 -0.2177369 6.5
-4.6352882 -4.6964865 0.11509617 8.0227499
-4.4272113 -0.54965705 0.12930779 8.333333
-4.6324253 -0.37640044 0.16170222 8.5
-4.5515141 4.2138267 0.10818131 8
-4.6081748 -4.7625089 0.65585274 10.340917
-4.4689384 -0.51313668 0.62379217 11.444444
-4.6249447 -0.37962028 0.48698956 10.5
-4.6136022 4.2140484 0.61955011 10.333334
-4.7114153 -4.7641306 0.94134396 11.507584
-4.6987891 4.2153044 0.99896878 12
-4.7070513 -4.7620587 1.3006873 13.011375
-4.6118841 4.2148604 1.327282 13.5
-4.6916094 4.2109747 1.6878395 15
-4.6452069 -6.3754673 2.1127691 15.027
-4.3137345 1.7746097 -0.40776137 5
-4.1009283 2.2236733 -0.40779647 5
-4.1946573 -4.5840631 -0.32552582 6
-4.1451178 -0.64389658 -0.16930786 6.3333335
-4.2812862 -0.33636013 -0.37518072 5
-4.1600676 4.2144952 -0.20669952 6.5
-4.2390537 -4.7013783 0.11042178 8.0240002
-4.1184282 -0.80720198 0.14642176 8.5
-4.2944317 -0.66175193 0.15158698 8.5
-4.2439017 4.2142291 0.24558973 8.666666
-4.1353364 -4.7662458 0.62516731 10.333333
-4.1148424 -0.80729079 0.55169463 11.25
-4.2884688 -0.66446382 0.57094151 11.25
-4.1475129 4.2132983 0.62293863 10.5
-4.2293887 -4.7647591 1.008738 12
-4.2190323 4.2131414 1.0337012 12.416666
-4.1645036 -4.7662687 1.3440027 13.5
-4.1880836 4.2166591 1.4437107 14.333333
-4.3477907 4.2141418 1.6212206 15
-4.2184458 -6.3778281 2.0479832 15.02825
-3.8667645 2.6049078 -0.40748709 5
-3.7305219 2.8048623 -0.40795231 5
-3.7060084 -4.5841236 -0.30874631 6
-3.6257598 -1.206306 -0.066602483 7
-3.8489559 -0.99457467 -0.069316484 7
-3.7813325 -0.77637374 -0.33728513 5
-3.7194746 4.2123971 -0.1963326 6.5
-3.8050873 -4.6931338 0.10539448 8.0255003
-3.6277847 -1.2196929 0.15573478 8.666667
-3.8681479 -1.0206941 0.13958807 8.5
-3.7708602 4.2125139 0.16392685 8.333333
-3.7110894 -4.7672596 0.63481355 10.5
-3.6362278 -1.2199066 0.50453883 11.25
-3.8658772 -1.0204833 0.52620435 11.25
-3.7410567 4.207974 0.58077908 10.444444
-3.7664328 -4.7658753 1.1077275 12.666667
-3.7792184 4.20474 0.99673986 12.5
-3.7373154 -4.7678289 1.397819 14
-3.8027985 4.2125187 1.4143498 14.5
-3.3350768 -0.58460009 -0.40816429 3
-3.3742065 -0.18703769 -0.40723631 3
-3.3125999 0.24781299 -0.40720448 4
-3.2597983 0.64090961 -0.40748334 4
-3.5786393 2.9936879 -0.40773872 5
-3.3882799 3.2077606 -0.40795091 5
-3.5252407 -4.5912805 -0.30319396 6
-3.3643086 -1.4065561 -0.06359221 7
-3.4537194 4.2068996 -0.25314769 6.1666665
-3.547982 -4.7010307 0.10272892 8.0264997
-3.4186931 -1.4052519 0.12898874 8.5
-3.4667921 4.2063947 0.12697797 8.166666
-3.5469983 -4.7673459 0.62430167 10.5
-3.4172108 -1.3986864 0.60298878 12.133333
-3.3579388 4.2123199 0.61402315 10.75
-3.3166859 -4.7685208 1.0239911 12.514
-3.3118293 4.2055001 1.0398183 13
-3.3310449 -6.5996013 1.4365469 13
-3.3146749 -4.7656102 1.3395737 14.014
-3.5439818 4.2050033 1.4215162 14.75
-3.3378754 -6.5929766 1.9245409 14.806399
-2.8682611 -3.6706223 -0.40728334 5
-3.171118 -3.4181392 -0.40771928 5
-3.1584322 1.0224391 -0.40703204 4
-2.979244 1.4753597 -0.40797228 4
-3.1002829 3.4983296 -0.40863016 5
-2.8053522 3.713268 -0.40688002 5
-2.982754 -1.6786522 -0.11611084 6.5
-3.0349145 4.2557316 -0.19497398 6.4333329
-2.9783483 -1.7701291 0.14085835 8.666667
-3.0544846 4.2561841 0.18899046 8.5333338
-2.9791348 -1.7696966 0.5596385 12.083333
-3.0201609 4.2437778 0.56777442 10.611112
-3.0151594 -4.6918411 1.0834367 13.01425
-2.9716768 4.2607555 1.0210233 13.0625
-2.9233932 -6.06776 1.4314958 13.507999
-2.9618835 -4.671248 1.3433133 14.342834
-3.0052097 4.2605829 1.329071 14.653334
-2.885617 -6.0830626 1.7620451 14.833333
-2.4092796 -2.3426445 -0.4068585 3
-2.7280784 1.9061209 -0.40806356 4
-2.5621824 2.1182184 -0.40775824 4
-2.5523021 3.89679 -0.40736416 5
-2.4601364 -2.433135 -0.21170543 5.75
-2.5547216 -2.0931561 -0.057612356 7
-2.7544925 -1.7645707 -0.26072997 4.6666665
-2.5682309 4.2906017 -0.20405424 6.3333335
-2.4060366 -3.3004684 0.35703608 10
-2.4626992 -2.4356742 0.12093052 8.5
-2.575953 -2.1110206 0.17458035 9
-2.6029596 4.2911983 0.17516306 8.5
-2.4731066 -6.2208958 0.42957324 9.333333
-2.4654579 -2.4384074 0.54937083 12
-2.5739067 -2.1144173 0.55749637 12.25
-2.5923173 4.2900252 0.5711391 10.75
-2.5793333 -6.2292271 1.0075748 11.758375
-2.62567 -4.9334879 1.0856978 13.031
-2.6754985 -4.6573257 1.0436054 13.010167
-2.5677855 4.2898593 1.0932411 13.666667
-2.6070859 -6.1673102 1.3918097 13.383375
-2.6232252 -4.9288812 1.3917618 14.531
-2.6569185 -4.6425476 1.3334587 14.507626
-2.4994748 4.2904248 1.329565 15
-2.6033049 -6.1769314 1.7646419 14.883375
-2.1516483 -2.5705178 -0.4068481 3
-2.3589284 2.3487577 -0.40816492 4
-2.1238561 2.5599627 -0.40809822 4
-2.2130661 4.1087589 -0.40813848 5
-2.3177474 -3.2173283 -0.19370706 6.0999999
-2.0793469 -3.1068165 -0.32679352 5
-2.3258698 -2.1724873 -0.27419412 4.5
-2.2453375 4.2892313 -0.16893294 6.5
-2.2480018 4.5670886 -0.20755194 6.3333335
-2.1283336 4.9012842 -0.14048643 6.75
-2.0576479 -6.1233912 0.11272953 8.0118332
-2.0809872 -5.672545 0.10542487 8.0349998
-2.0864022 -5.404726 0.1010809 8.0345001
-2.0803547 -5.1307364 0.096592963 8.0340004
-2.3199334 -3.2162015 0.16606653 8.6999998
-2.373255 -2.3098755 0.19318359 9.166667
-2.2583945 4.3212962 0.16047762 8.4444437
-2.2410586 4.6307287 0.20892575 8.666667
-2.1520782 5.0116572 0.19685732 8.5333338
-2.2691436 -6.2345004 0.46430048 9.5
-2.385905 -3.2727897 0.49687517 11
-2.1702597 -3.1367002 0.51136178 11.333334
-2.3708091 -2.2956243 0.55176765 12.25
-2.2524607 4.3172755 0.5875836 10.944444
-2.2510643 4.5818191 0.63543004 11.055556
-2.1260796 4.9872475 0.59617376 10.6375
-2.2150598 -6.2686806 0.9345172 11.5
-2.2392347 4.3129125 1.0330276 13.5
-2.2542186 4.527854 1.0591403 13.416666
-2.1281281 4.9648471 0.98467863 12.666667
-2.2157021 -6.2704363 1.2925184 13
-2.2720597 4.3014812 1.3026335 15
-2.2403936 4.6608372 1.3363949 14.75
-2.1252851 4.9978118 1.3574554 14.516666
-2.3160236 -6.2742906 1.6676854 14.5
-1.6351743 -4.3554988 -0.40693036 5
-1.9080834 2.7136662 -0.40694878 4
-1.605746 2.9154096 -0.40850919 4
-1.7787826 4.3031645 -0.40734839 5
-1.6823592 -6.1660113 -0.11153844 7
-1.7477714 -5.6956367 -0.10396302 7
-1.7053547 -3.2078259 -0.22225817 5.75
-1.9850074 -3.1091254 -0.22546074 5.75
-1.7995628 4.993669 -0.18532652 6.5
-1.8374717 -6.2048655 0.2498451 8.6000004
-1.7037106 -3.2061527 0.12676553 8.5
-1.9986433 -3.1133192 0.12911732 8.5
-1.7999028 5.0041294 0.18583761 8.5
-1.6990753 -6.2470078 0.60579848 10.166666
-1.703572 -3.2073464 0.44604662 11
-1.9877467 -3.1090894 0.45295212 11
-1.619556 5.0235238 0.58629239 10.666666
-1.8673058 -6.2377524 0.97281623 11.75
-1.691798 5.0200477 1.0293244 13
-1.8279192 -6.1821322 1.3604715 13.458333
-1.6112248 5.0229259 1.3153913 14.5
-1.8617295 -6.2013311 1.702134 14.866666
-1.3674048 -4.4525924 -0.40743482 5
-1.3345053 -3.0530534 -0.40581265 3
-1.3589288 3.0352714 -0.40807205 4
-1.3883826 4.4526796 -0.40800083 5
-1.3740231 -6.1955357 -0.22155337 6.5
-1.4752955 -5.9238605 -0.31986371 6
-1.4724005 -5.4414701 -0.29535031 6
-1.4728234 -5.1012015 -0.27817747 6
-1.4695604 -4.7863464 -0.26230943 6
-1.51283 -3.6684117 -0.13850892 6.5
-1.5411017 -3.4283273 -0.26728049 5.4666667
-1.3196888 5.0150309 -0.21122698 6.3333335
-1.3722788 -6.1940494 0.11073344 8
-1.5117235 -3.6700242 0.20768799 9
-1.5280007 -3.482667 0.16640042 8.75
-1.3068123 5.0265775 0.18132357 8.5
-1.3983344 -6.2478819 0.59932369 10.166666
-1.5100516 -3.6702967 0.48704004 11
-1.556444 -3.3834243 0.5098207 11.4
-1.3391513 5.0231857 0.60842115 10.833334
-1.3738998 -6.1793542 1.0025355 12
-1.3545178 5.0235376 1.0741978 13.333333
-1.3997349 -6.1796794 1.3471793 13.5
-1.4416609 5.0365691 1.3712088 14.833334
-1.403149 -6.1827183 1.6987196 15
-1.0871441 -4.5220299 -0.40679201 5
-1.0454131 -3.1804366 -0.40867466 3
-1.032588 3.1549513 -0.40752718 4
-1.0891107 4.5278831 -0.40732127 5
-1.0215347 -6.1912875 -0.2191443 6.5
-1.0112572 5.0227761 -0.17894177 6.5
-1.0350835 -6.1972303 0.10966741 8
-1.0109766 5.0215378 0.17890947 8.5
-0.98292375 -6.2582064 0.65476078 10.444444
-1.013412 5.021111 0.58416331 10.75
-1.1082724 -6.1805344 0.99438769 12
-1.0293407 5.0227103 1.0713668 13.4
-0.95551658 -6.1787877 1.329724 13.5
-1.0108941 5.0211487 1.3723872 15
-1.1086736 -6.1823444 1.6827642 15
-0.64600819 -4.6129951 -0.40774134 5
-0.67502928 -3.2606759 -0.40738937 3
-0.63350827 3.2592909 -0.40798849 4
-0.64732945 4.6176662 -0.40817457 5
-0.59748662 -6.1972666 -0.21747394 6.5
-0.62463373 4.9796247 -0.20461291 6.3333335
-0.55473804 -6.2028904 0.19979286 8.416667
-0.65210271 4.9773579 0.17536463 8.5
-0.63981497 -6.2494192 0.5950793 10.2
-0.61435437 4.9948025 0.58305711 10.8
-0.61662054 -6.1973772 0.98652375 12
-0.62471265 4.9800191 1.0371029 13.333333
-0.49181885 -6.2686038 1.3369859 13.5
-0.62445259 4.9828258 1.3461337 15
-0.61207634 -6.2287912 1.6773349 15
-0.20866238 -4.6533995 -0.40756282 5
-0.27467811 -3.3105114 -0.40720481 3
-0.19723004 3.3134565 -0.40779006 4
-0.19036275 4.6587076 -0.40804124 5
-0.18946822 -6.1945758 -0.21648045 6.5
-0.1066991 4.977253 -0.17391704 6.5
-0.1794648 -6.2028847 0.10832741 8
-0.10670037 4.9769692 0.17391676 8.5
-0.19309121 -6.2518735 0.5927946 10.2
-0.10668458 4.9764032 0.56771183 10.75
-0.20599613 -6.2729096 0.9941681 12
-0.10663056 4.9744983 1.0580726 13.5
-0.12173941 -6.2721748 1.333861 13.5
-0.1066951 4.9774246 1.3341166 15
-0.20611714 -6.2763891 1.6828285 15
0.17763332 -4.650382 -0.40726531 5
0.17021972 -3.3211064 -0.40850642 4
0.20251323 3.3127842 -0.40772036 4
0.20199074 4.6627698 -0.40840542 5
0.15343273 -6.1955509 -0.21647596 6.5
0.34387904 -3.9218328 -0.34445038 5
0.24795139 -3.5089839 -0.12279607 6.5
0.25936887 -3.1321585 -0.13737333 6.25
0.1071661 4.976213 -0.17389666 6.5
0.20862785 -6.1981335 0.21660997 8.5
0.24616857 -3.6834083 0.25826284 9.5469999
0.23628466 -3.4114158 0.19336717 9.1366873
0.23991336 -3.1229527 0.25725242 9.8489161
0.10711725 4.9742303 0.17378752 8.5
0.18912952 -6.2537518 0.57778519 10.133333
0.24160872 -3.6169431 0.57418078 12.047
0.2348703 -3.2377381 0.63105375 13.015667
0.27068043 -3.0916562 0.58429974 12.833333
0.10715033 4.9750834 0.56753129 10.75
0.18350904 -6.2762346 0.9946323 12
0.10711221 4.974164 1.0579094 13.5
0.26608139 -6.2762837 1.3360573 13.5
0.10715124 4.9752917 1.333532 15
0.18865472 -6.2713318 1.6814388 15
0.75747633 -3.2378023 -0.40851849 4
0.62503463 3.2607973 -0.4081679 4
0.6218546 4.6212358 -0.40821785 5
0.60602099 -4.4824624 -0.39588994 5
0.51842469 -3.1085775 -0.19759499 5.7222219
0.5534609 4.9732075 -0.17488901 6.5
0.57382286 -3.0800197 0.17868541 9.125
0.55155015 4.9743633 0.174955 8.5
0.54964733 -3.073225 0.55172533 12.5
0.59395891 4.9408975 0.58725309 10.861112
0.55369943 4.9749384 1.065026 13.5
0.43652222 -4.9869208 1.3414468 15.0475
0.59899336 -4.6118097 1.2464976 15.04875
0.55361313 4.9734511 1.341758 15
0.41507837 -6.2691512 1.6835372 15
0.98608702 -4.4760399 -0.40113142 5
1.0202569 -3.1540644 -0.40736234 4
1.0233376 3.1529629 -0.40728211 4
1.0846509 4.542275 -0.40862706 5
1.040518 -3.0827756 -0.13252887 6.3333335
1.00166 4.9717684 -0.17722934 6.5
1.0173928 -3.0809925 0.14779349 8.8000002
0.99980539 4.9746156 0.17732367 8.5
1.0295527 -3.065443 0.62596071 12.966667
1.0046233 4.9734778 0.57877976 10.75
0.99765432 4.9736781 1.0788958 13.5
0.97356069 -4.6110439 1.2634244 15.051
1.0019119 4.973052 1.3597417 15
1.3742471 -4.4451537 -0.40727496 5
1.3693278 -3.0168576 -0.40718114 4
1.4726884 2.9732068 -0.40803 4
1.3791683 4.4494476 -0.40771767 5
1.3972958 -3.0809841 -0.11832909 6.5
1.4491001 4.9753151 -0.18110798 6.5
1.4242259 -3.0820904 0.1660741 8.8999996
1.4500848 4.9740181 0.18110605 8.5
1.3890792 -3.0665412 0.56411707 12.25
1.4490963 4.9752498 0.59125626 10.75
1.4683112 4.9736218 1.0556668 13.25
1.403711 -4.6139598 1.2930723 15.0535
1.3969649 4.9713597 1.3841081 15
1.7863505 -4.2956142 -0.40739036 5
1.7039163 -2.8413467 -0.40708473 4
1.9017026 -2.7210262 -0.40800944 4
1.8768026 2.7353559 -0.40755895 4
1.7822189 4.3048501 -0.40787441 5
1.6480165 -3.9032252 -0.37081105 5
1.6870635 -3.0858634 -0.21529454 5.75
1.955283 4.9748578 -0.18660131 6.5
1.7663574 -3.1092103 0.2298101 9.3533335
1.9562358 4.9714165 0.18666174 8.5
1.703204 -3.0607355 0.59322935 12.312
1.9526589 4.9714227 0.60934097 10.75
1.8234601 -4.6122308 1.1456789 14.018417
1.9550601 4.9743557 1.0391636 13
1.8255656 -4.6176801 1.3312564 15.018417
1.7954792 4.9753537 1.3297893 14.55
2.2009859 -4.0996404 -0.40745771 5
2.1088607 -2.5553837 -0.40734163 4
2.3413873 -2.3424833 -0.40703273 4
2.3483894 2.346277 -0.40785232 4
2.0998735 2.5642366 -0.40742305 4
2.2014632 4.102252 -0.40753201 5
2.0787923 4.9840064 -0.18878673 6.5
2.2102783 5.0183935 0.19157767 8.5
2.1477504 5.0001211 0.63645989 10.833333
2.1679456 -4.6068621 1.1761252 14.028999
2.1506884 5.0223742 1.062297 13
2.1708117 -4.6129169 1.3668233 15.028999
2.1899867 5.008523 1.4314842 14.833333
2.5511487 -3.8945489 -0.40763995 5
2.5478535 -2.1153719 -0.40718877 4
2.7157028 -1.9049439 -0.40779811 4
2.731823 1.87772 -0.40735912 4
2.5632153 2.1072786 -0.40795574 4
2.5898421 3.8767958 -0.40814698 5
2.6307952 -4.4837236 -0.18165678 6.5
2.5021496 5.01897 -0.19601348 6.5
2.6242526 -4.4898496 0.090825893 8
2.4894555 5.0144849 0.19558485 8.5
2.5735652 5.0144277 0.62580562 10.666666
2.4645219 5.0084996 1.0852749 13
2.6533816 -4.5873394 1.3226106 14.509875
2.5466807 5.0171595 1.4041249 14.5
2.8009903 -3.7223172 -0.40784824 5
3.0841584 -3.4926186 -0.40794009 5
2.9681754 -1.475122 -0.40787953 4
3.1525319 -1.0238922 -0.40757993 4
3.1506357 1.0091037 -0.40679368 4
2.9647441 1.471763 -0.4072274 4
3.0864642 3.4913561 -0.40790886 5
2.8041983 3.7264867 -0.40822029 5
2.9605937 -4.481184 -0.21875411 6.3333335
2.9737773 4.2770777 -0.18982279 6.4583335
2.9079003 4.5953765 -0.23678927 6.25
2.8779147 4.9872546 -0.1945464 6.5333333
3.002342 -4.4854903 0.18780525 8.5
2.9634714 4.25174 0.18118991 8.5
2.9132881 4.6048617 0.19044645 8.5
2.8822215 4.9757385 0.19407141 8.4666662
2.9853389 -4.6160088 0.6269151 10.75
2.9940529 4.2808542 0.58081073 10.666667
2.9124954 4.6459665 0.62640959 10.75
2.8754482 4.9915128 0.58872133 10.416667
2.9580231 -4.6154041 1.0663368 13
2.9735868 4.2637639 1.0662369 13.291666
2.9131844 4.6853266 1.0726827 13
2.886724 4.9915843 1.0173855 12.5
2.9858918 -4.545011 1.38475 14.633333
2.9704382 4.2846088 1.3431495 14.722222
2.9114494 4.6314874 1.3980445 14.666667
2.8846385 4.9902363 1.4380695 14.5
3.2919972 -3.2916498 -0.4075605 5
3.510061 -3.0540085 -0.4073911 5
3.2503059 -0.6407457 -0.40753138 4
3.3101556 -0.21667516 -0.40795103 4
3.3076162 0.18697564 -0.40740648 4
3.257921 0.61842364 -0.40792784 4
3.571507 2.9937482 -0.40788972 5
3.3780158 3.2050281 -0.4077256 5
3.3982253 -4.4831896 -0.1966141 6.5
3.4769983 4.209794 -0.15829195 6.6666665
3.4921157 -4.4849539 0.2649779 8.833334
3.5124943 4.2209044 0.21611546 8.625
3.4239097 -4.6195364 0.63787812 10.666666
3.4703307 4.2407832 0.64061099 10.833333
3.4311025 -4.6154885 1.049 12.666667
3.5256171 4.225688 1.0700797 13
3.4413629 -4.5284562 1.4198557 14.5
3.5029166 4.2099795 1.407388 14.7
3.7182565 -2.8035302 -0.40775636 5
3.8818142 -2.5749714 -0.40787664 5
3.8779712 2.5699618 -0.40728042 5
3.7177112 2.8008337 -0.40749869 5
3.8096049 -4.4864049 -0.24062519 6.3333335
3.7237837 4.1996303 -0.17952718 6.583333
3.8074868 -4.4904084 0.16444376 8.3130007
3.7476604 4.2011137 0.19681828 8.5
3.7836723 -4.6175604 0.62802553 10.5
3.7244167 4.2013206 0.63177842 10.708333
3.7813344 -4.6092806 1.1056354 12.75
3.8128264 4.1974072 1.0337863 12.666667
3.7279568 -4.5268507 1.4637065 14.5
3.7247272 4.2006636 1.4004425 14.5
4.0611992 -2.2676253 -0.40739805 5
4.2989497 -1.7723678 -0.40730843 5
4.3081398 1.7744877 -0.40806779 5
4.0907707 2.221458 -0.40764597 5
4.1726627 -4.4880342 -0.1070173 7
4.1790829 4.1992869 -0.19199705 6.5714288
4.2172508 -4.4833016 0.23632203 8.6000004
4.1876941 4.1989002 0.1959421 8.4444437
4.1932163 -4.6189122 0.65624762 10.5
4.2015653 4.2010446 0.63687211 10.555556
4.178762 -4.5930924 1.0389683 12.25
4.2582669 4.2014713 1.0794971 12.611112
4.1956849 -4.5275168 1.3686234 13.75
4.1461997 4.1990914 1.4350463 14.333333
4.1547184 -4.5278831 1.6476016 15
4.2644234 4.2017903 1.6046386 15
4.4457755 -1.3815261 -0.40771651 5
4.5313654 -1.0931171 -0.40811366 5
4.6117177 -0.6371606 -0.40788826 5
4.6528568 -0.20380542 -0.40782356 5
4.6552453 0.18285067 -0.40799686 5
4.6120143 0.63594121 -0.4078784 5
4.5148592 1.0875834 -0.40656087 5
4.4448647 1.3824867 -0.40762004 5
4.5777206 -4.4867048 -0.22327216 6.5
4.6190357 4.1999459 -0.18141779 6.6666665
4.6314483 -4.4893918 0.18761046 8.333333
4.6522517 4.1989651 0.10943247 8
4.6043115 -4.616395 0.5707193 10
4.6413765 4.1996536 0.60370344 10.25
4.6070766 -4.6191788 0.91763699 11.5
4.6396027 4.200057 0.99156952 12
4.686604 -4.5294623 1.2674938 13
4.6388383 4.1988831 1.2931981 13.333333
4.6295719 -4.5288858 1.6555551 14.666667
4.5296702 4.2023592 1.6562498 15
4.9091706 -4.4909086 -0.19345978 6.6666665
4.9988647 4.1976981 -0.22882445 6.5
4.9144602 -4.4858255 0.23245132 8.5
5.0164561 4.1964889 0.11421601 8
4.9583359 -4.6179128 0.59307611 10
4.9741597 4.1987925 0.65576375 10.375
4.9391522 -4.6190696 0.95177931 11.5
4.9406891 4.2000318 1.0274366 12
5.0231113 -4.5270286 1.4391335 13.5
4.9196877 4.1986136 1.3557978 13.416666
5.0044165 -4.5276527 1.7537498 14.777778
5.0403719 4.1980047 1.6760352 14.666667
5.3766108 -4.4894013 -0.22047061 6.5999999
5.3907967 4.2057085 -0.17894593 6.75
5.3731527 -4.489574 0.22394559 8.4283333
5.4002252 4.1965094 0.1791074 8.25
5.3561735 -4.6194038 0.74404562 10.5
5.3473167 4.1973581 0.49608734 9.583333
5.4279909 -4.6192589 1.1294968 12
5.3527651 4.2044611 0.95705622 11.5
5.3729653 -4.6226377 1.3783847 13
5.358057 4.1983356 1.3735384 13.2
5.3989439 -4.6205292 1.7731766 14.5
5.4048696 4.2221904 1.761511 14.7
5.8369236 -4.4915743 -0.38614324 6
5.7633634 4.2345414 -0.24939255 6.5
5.8011045 -4.5750008 0.30162916 8.6904173
5.750154 4.2387824 0.24967557 8.5
5.8026009 -4.6219411 0.6493296 10
5.752501 4.2387853 0.75158942 10.5
5.8351789 -4.6213326 1.0032959 11.333333
5.751585 4.2398248 1.1321599 12
5.799994 -4.619885 1.4420038 13
5.7312422 4.236362 1.3858625 13
5.8059039 -4.6194072 1.8513045 14.5
5.8746629 4.2417965 1.852491 14.666667
6.2874837 -4.4789958 -0.40473309 6
6.0696559 4.2398171 -0.21548015 6.6666665
6.1733618 -4.4798121 0.13324648 8.0719995
6.0765033 4.2420602 0.25890452 8.5
6.1283841 -4.618896 0.49196011 9.333333
6.0664368 4.235075 0.64748573 10
6.1150188 -4.624938 0.9417904 11
6.0585256 4.2370815 1.0396943 11.5
6.2499084 -4.6189103 1.3368769 12.375
6.0562892 4.2355165 1.4369898 13
6.1918764 -4.6176491 1.7840186 14
6.0642071 4.2410421 1.8461505 14.5
6.1039858 -4.6165776 2.0515158 15
6.5305815 -4.2128644 -0.40747765 6
6.6936002 -3.9382977 -0.40717772 6
6.570138 4.1690207 -0.40801704 6
6.5338168 -4.4936934 0.13853273 8.0727501
6.5697536 -4.6201954 0.56177294 9.5
6.5704951 -4.6211257 0.98677576 11
6.7425251 -4.6207399 1.4430232 12.5
6.5953302 -4.6213374 1.8601611 14
6.5425119 -4.6224451 2.1474335 15
6.8242717 -3.7129166 -0.40732116 6
6.9539304 -3.4718144 -0.40751192 6
7.0785532 -3.1920013 -0.40714145 6
7.0943532 3.196454 -0.40795943 6
6.9712543 3.4776611 -0.40842602 6
6.8382421 3.7174914 -0.40804181 6
7.0305309 -4.4953203 0.14577825 8.0737495
7.0883794 -4.6226611 0.59193772 9.5
7.0747428 -4.6220441 1.0380439 11
7.0628257 -4.6226249 1.3374835 12
7.102057 -4.6233459 1.8025388 13.5
7.0707145 -4.6235013 2.2645972 15
7.2421412 -2.8227112 -0.40756211 6
7.3678026 -2.473078 -0.40747604 6
7.4577975 -2.1666541 -0.40720651 6
7.5655022 -1.784117 -0.4075743 6
7.5566082 1.829906 -0.40772101 6
7.4291639 2.2849829 -0.40748143 6
7.3732977 2.47247 -0.40771264 6
7.2449923 2.8213332 -0.40764555 6
7.6570935 -1.3835912 -0.4079892 6
7.7111816 -1.0947281 -0.4083375 6
7.7501369 -0.62958127 -0.40776277 6
7.7694421 -0.19662313 -0.40747997 6
7.7699785 0.1618415 -0.40748912 6
7.7520881 0.627599 -0.40784931 6
7.6937609 1.090041 -0.40738702 6
7.6496029 1.3798161 -0.40755263 6
10.651448 -5.6787553 -0.210728 7
10.777693 -5.6535754 0.21251766 8
10.772868 -5.6510334 0.63773906 9
10.79272 -5.0744328 0.62521648 9
10.75799 3.1903603 0.58823842 9
10.755238 3.4118874 0.59153044 9
10.772214 3.8040733 0.59889883 9
10.783351 4.1572123 0.60584635 9
10.79887 4.4145846 0.6115703 9
10.77734 -5.6533632 1.0650568 10
10.737422 2.9658034 0.97494334 10
10.735377 3.2228649 0.98090035 10
10.778214 3.9384873 1.004212 10
10.770336 -5.6497183 1.4937581 11
10.739592 2.9957402 1.3695519 11
10.790986 3.9226418 1.4101442 11
10.772555 -5.650887 1.9272455 12
10.799006 -5.0773888 1.8905554 12
10.739896 3.0328012 1.7682027 12
10.782935 3.9197395 1.8176426 12
10.76199 -5.6338601 2.3618884 13
10.742025 2.9670851 2.1670146 13
10.752844 3.2281082 2.1828654 13
10.785749 3.9207594 2.2313144 13
10.546124 -5.66257 2.7643287 14
10.542141 -5.3997273 3.1750643 15
10.584611 -4.9603748 3.1330848 15
10.647906 -4.7045274 3.1201086 15
10.668634 -4.2410603 3.0774877 15
10.691257 -3.7890239 3.0403559 15
10.702201 -3.4065244 3.0104373 15
10.715313 -3.0353341 2.9852703 15
10.731608 -2.5972612 2.9596269 15
10.773735 -2.2323334 2.9491301 15
10.615065 -6.1281519 3.2857516 15.075
10.55691 -5.7904477 3.2275302 15.03775
10.839941 -5.4113398 -0.21152224 7
10.83475 -4.9398918 -0.2078921 7
10.875567 -4.5245357 -0.20564879 7
10.893766 -4.0675974 -0.20301706 7
10.895649 -3.7585588 -0.20121793 7
10.921153 -3.4428382 -0.19992381 7
10.932699 -2.9786148 -0.19784254 7
10.957657 -2.5449224 -0.19639425 7
10.959846 -2.2182989 -0.19522797 7
10.981287 -1.7946336 -0.19427775 7
11.002579 -1.3364768 -0.19349945 7
11.020174 -1.0581994 -0.19328642 7
11.023705 -0.63078326 -0.19279325 7
11.04878 -0.18678643 -0.19292121 7
11.055322 0.091244429 -0.19302092 7
11.061181 0.62998748 -0.19344448 7
11.065988 1.0596539 -0.19408305 7
11.08457 1.3433859 -0.19493236 7
11.056979 1.8031361 -0.19560273 7
10.990223 2.2213197 -0.19575456 7
11.005325 2.5527763 -0.1972317 7
11.033133 3.0027781 -0.19964029 7
11.045719 3.4987361 -0.20228271 7
11.068757 3.8147185 -0.20438831 7
11.08172 4.1342196 -0.2064914 7
11.098429 4.6136231 -0.20983145 7
11.113132 5.0631571 -0.21319936 7
11.131427 5.5529747 -0.21717183 7
11.154109 5.9423294 -0.22062711 7
10.821302 -5.8277164 0.21461655 8
10.831238 -5.3481536 0.2109495 8
10.828228 -4.9697547 0.20804809 8
10.864007 -4.7131338 0.20679079 8
10.882189 -4.2000136 0.20371836 8
10.899737 -3.7191951 0.20110902 8
10.917521 -3.4816251 0.20010519 8
10.931227 -3.0323343 0.19811009 8
10.953155 -2.6022551 0.1965986 8
10.964511 -2.2001607 0.19528992 8
10.980793 -1.7707977 0.19424155 8
10.998753 -1.3424208 0.19349693 8
11.009305 -1.0943661 0.19319656 8
11.015059 -0.62411851 0.19267161 8
11.05342 -0.20534582 0.19305705 8
11.067603 0.19353195 0.19330198 8
11.053098 0.60796762 0.19331747 8
11.088289 1.0992137 0.19457251 8
11.096053 1.447533 0.19541182 8
11.13188 1.870095 0.19710334 8
10.991266 2.1180568 0.19546773 8
11.001474 2.4985497 0.19699304 8
11.024848 3.0302975 0.19966617 8
11.050925 3.3978794 0.20193884 8.0985003
11.052363 3.7053576 0.20361078 8.0992498
11.075821 4.1315069 0.20647824 8.1002502
11.094344 4.611444 0.2098501 8.1012497
11.112952 5.0627685 0.21329205 8.1022501
11.125194 5.3871799 0.21582457 8
11.152086 5.8697777 0.22004214 8
10.81388 -5.8237433 0.64388514 9
10.834213 -5.441359 0.63560373 9
10.846752 -4.9896512 0.62594062 9
10.864762 -4.6917796 0.62042058 9
10.881915 -4.2362146 0.61224705 9
10.895361 -3.8099296 0.60512513 9
10.911881 -3.5201514 0.6010915 9
10.929931 -3.0389762 0.59480655 9
10.950766 -2.6016552 0.59010333 9
10.967804 -2.2773559 0.58726132 9
10.979755 -1.8103188 0.58348978 9
11.007626 -1.3933769 0.58170831 9
11.015986 -1.0112114 0.5799765 9
11.01325 -0.58384788 0.57820708 9
11.051403 -0.20533334 0.5794962 9
11.064927 0.19339755 0.58019745 9
11.062908 0.65450913 0.58104843 9
11.075504 1.0979617 0.58348024 9
11.076146 1.3995588 0.58532619 9
11.061802 1.8994207 0.58839333 9
10.994912 2.1335859 0.58718181 9
10.995601 2.4827125 0.59094167 9
11.028338 3.0046191 0.5992589 9
10.809056 4.596108 0.61572486 9
11.119371 5.0656095 0.64072108 9.1022501
11.124975 5.3870783 0.64795327 9
11.155915 5.8718424 0.66085708 9
10.813748 -5.8236423 1.0748612 10
10.831147 -5.3481116 1.0572244 10
10.829679 -4.9703989 1.0428306 10
10.859356 -4.7110858 1.0359458 10
10.879254 -4.2351985 1.021811 10
10.899 -3.8111484 1.0105065 10
10.913368 -3.460201 1.0019708 10
10.930352 -3.0321488 0.99280673 10
10.951979 -2.6019509 0.98520368 10
10.970555 -2.2014155 0.97929156 10
10.990034 -1.7738367 0.9743458 10
11.011635 -1.300137 0.97040623 10
11.015182 -1.0949333 0.96877819 10
11.008405 -0.62587875 0.96505326 10
11.048427 -0.20525447 0.96712738 10
11.06441 0.19341829 0.96851349 10
11.056549 0.59890801 0.96913761 10
11.081709 1.0985754 0.97458464 10
11.103961 1.4408848 0.98001873 10
11.051225 1.8975815 0.98130202 10
10.988629 2.1638887 0.98020834 10
11.006643 2.624783 0.99027514 10
10.808027 3.4135451 0.99190676 10
10.823549 3.7372909 1.0020889 10
10.845581 4.2481303 1.0194006 10
10.839459 4.5912108 1.0301797 10
10.814452 5.0533628 1.0446086 10
11.125989 5.4106417 1.0826526 10
11.145182 5.8661213 1.1021483 10
10.819346 -5.8266759 1.509269 11
10.829342 -5.3946671 1.4860066 11
10.823635 -5.0393815 1.4664234 11
10.858848 -4.710865 1.4538041 11
10.883764 -4.2368941 1.4346271 11
10.900617 -3.7912681 1.4175543 11
10.916896 -3.427865 1.4054408 11
10.9333 -3.0328133 1.3936921 11
10.946006 -2.600523 1.3819057 11
10.966156 -2.2004821 1.3738105 11
10.983709 -1.7666479 1.3665158 11
11.007001 -1.3996078 1.3628677 11
11.016839 -1.0112761 1.3588865 11
11.020088 -0.5934599 1.3555366 11
11.050239 -0.20532228 1.3575138 11
11.067271 0.19346499 1.359588 11
11.054455 0.5988282 1.3598558 11
11.07959 1.0983412 1.3674954 11
11.077688 1.3519304 1.370688 11
11.073957 1.7996695 1.3780797 11
10.993716 2.1393192 1.3756853 11
11.019104 2.6488345 1.3919322 11
10.821112 3.3876781 1.3926378 11
10.82944 3.7629805 1.4080631 11
10.832994 4.2021604 1.4272393 11
10.808121 4.6851244 1.4467425 11
10.82454 5.0471258 1.4668378 11
11.129085 5.4121571 1.5198476 11
11.142361 5.8646345 1.5463939 11
10.81631 -5.8250613 1.9463116 12
10.825781 -5.3929114 1.9162207 12
10.844698 -4.9996681 1.891995 12
10.859678 -4.7112331 1.8754542 12
10.885037 -4.2373948 1.8507898 12
10.897668 -3.8107061 1.8291229 12
10.915295 -3.5011017 1.8161483 12
10.933165 -3.0540597 1.7986153 12
10.950845 -2.6016712 1.7833539 12
10.965441 -2.2003903 1.7720101 12
10.986623 -1.8994124 1.7664926 12
10.994019 -1.4381793 1.7568669 12
11.014548 -1.0110477 1.7525086 12
11.008556 -0.5949437 1.7467308 12
11.050655 -0.20531099 1.7511688 12
11.065088 0.19350222 1.7534326 12
11.05523 0.60811639 1.7543124 12
11.084694 1.098846 1.7647911 12
11.085905 1.3529377 1.7694077 12
11.093159 1.8160747 1.781087 12
10.985942 2.154563 1.773682 12
11.019446 2.6440475 1.7953879 12
10.820823 3.4725885 1.8004483 12
10.829289 3.7629418 1.8162841 12
10.844752 4.2451272 1.8451469 12
10.841915 4.6136117 1.866685 12
10.831734 5.0615497 1.8941146 12
11.129075 5.4647307 1.9642353 12
11.148006 5.8434577 1.9939454 12
10.817161 -5.8254943 2.3888283 13
10.834455 -5.4098587 2.3547857 13
10.826405 -4.9689293 2.3162122 13
10.861187 -4.7119102 2.3020031 13
10.880799 -4.2358117 2.2705321 13
10.89859 -3.8110723 2.245014 13
10.914149 -3.5007238 2.228663 13
10.929927 -3.0468073 2.2064657 13
10.950901 -2.6016788 2.1886611 13
10.964913 -2.200273 2.1746233 13
10.981148 -1.8984419 2.1668754 13
10.996184 -1.4398075 2.1566086 13
11.015555 -1.0949655 2.152457 13
11.01863 -0.6150803 2.1459959 13
11.053348 -0.20538336 2.1496744 13
11.066108 0.19342875 2.152127 13
11.06389 0.57749307 2.1542606 13
11.098822 0.99707675 2.1668308 13
11.083198 1.3525522 2.1710036 13
11.07699 1.800177 2.1822259 13
10.994579 2.1298482 2.1776204 13
11.013735 2.6407692 2.2021887 13
10.812854 3.3917997 2.203393 13
10.825659 3.7616532 2.228317 13
10.849151 4.2001405 2.2620034 13
10.847081 4.5526767 2.2872562 13
11.015559 5.0009589 2.3521419 13
11.150639 5.9404845 2.0014844 12
10.834512 -5.2952485 2.7849007 14
10.854684 -5.0043035 2.7603838 14
10.867927 -4.6072803 2.7261231 14
10.879704 -4.1770492 2.6914279 14
10.902209 -3.7816176 2.6650059 14
10.915258 -3.4055507 2.6406927 14
10.916528 -2.9642906 2.6125619 14
10.92222 -2.5851605 2.5921533 14
10.932788 -2.289212 2.5795822 14
10.95439 -1.8045955 2.5644073 14
10.97678 -1.2960045 2.5526052 14
10.990946 -1.0615985 2.5501595 14
11.014551 -0.62575823 2.5480061 14
11.052877 -0.20537259 2.5530858 14
11.069556 0.19348301 2.5569034 14
11.074436 0.59958601 2.5614955 14
11.07448 1.0978588 2.5700598 14
11.09344 1.2879577 2.5790789 14
11.093382 1.8187957 2.5962141 14
10.989053 2.0984149 2.5836854 14
11.001269 2.5013859 2.6053934 14
11.029382 2.9620433 2.6375284 14
11.049128 3.4033895 2.6699419 14
11.059688 3.7912581 2.6999683 14
11.075243 4.205997 2.7358396 14
11.095993 4.6124625 2.7749329 14
11.130221 5.4767838 2.4118559 13
11.149999 5.8923512 2.4518802 13
10.830426 -5.5546527 2.8109026 14
10.851902 -1.7964906 2.9488096 15
10.926249 -1.2900162 2.9489555 15
10.957649 -1.005771 2.9495056 15
10.9905 -0.54659444 2.9497726 15
11.000744 -0.16753384 2.9489448 15
10.999986 0.13994162 2.9486587 15
10.992564 0.56133056 2.9504554 15
10.951805 1.0022341 2.9478142 15
10.92683 1.294553 2.9492104 15
10.918242 1.7960272 2.9662752 15
10.933923 2.2958944 2.9944785 15
10.992011 2.6425114 3.0300975 15
11.025841 2.9757802 3.0611131 15
11.043411 3.4016831 3.0971751 15
11.057508 3.6869111 3.1240067 15
11.077205 4.1543336 3.1710443 15
11.107928 4.8705115 2.8008084 14
11.128623 5.3436556 2.8508832 14
11.145452 5.8662853 2.9084337 14
11.096533 4.6127267 3.2207882 15
11.112057 5.0065126 3.2665493 15
11.128854 5.3892055 3.3140023 15
11.144373 5.865694 3.3752408 15
11.452298 6.1505446 0.22696523 8
11.457213 6.1531839 0.68170708 9
11.447131 6.1477709 1.1370174 10
11.466744 6.1583033 1.5984553 11
11.461993 6.1557531 2.0610487 12
11.462891 6.1562347 2.5296552 13
11.455528 6.1522818 3.002574 14
11.46214 6.1558337 3.4868424 15
18.786621 12.21849 -0.3911874 7
18.676025 12.597079 -0.39322701 7
18.681583 12.590166 0.39331099 8
18.74542 12.394124 1.1778817 9
18.643656 12.758134 1.1840978 9
18.796137 12.16514 1.9590625 10
18.670019 12.616269 1.9716519 10
19.137339 11.033505 -0.38559788 7
19.03281 11.402603 -0.38728926 7
18.906734 11.850366 -0.38949671 7
19.175135 10.9272 0.38530582 8
19.038485 11.36309 0.38708937 8
18.909504 11.808093 0.38920516 8
18.834368 12.070605 0.39054462 8
19.128149 11.039306 1.1576222 9
19.013906 11.456373 1.1635326 9
18.90292 11.826081 1.1687208 9
18.820993 12.106596 1.1729574 9
19.128994 11.06108 1.9334995 10
19.00807 11.496372 1.9437336 10
18.901918 11.825454 1.9509205 10
19.252621 10.673964 -0.38426086 7
19.25976 10.614816 0.3839331 8
19.205805 10.817032 0.38482347 8
19.254955 10.612157 1.1523899 9
19.257261 10.613419 1.9239908 10
19.202957 10.81543 1.928419 10
20.018171 -12.000495 -0.40740606 7
20.220308 -11.665328 -0.40748167 7
20.412926 -11.324589 -0.40747935 7
26.344263 -15.202849 0.53108704 8.0749998
26.169867 -14.522898 0.52259165 8.0754995
26.339212 -15.199935 1.5941018 9.0749998
26.166271 -14.520905 1.5686872 9.0754995
26.529989 -15.908779 0.54012972 8.0745001
26.759232 -16.787203 1.6558667 9.0740004
26.518919 -15.902145 1.6208791 9.0745001
