# .PCD v0.7 - Point Cloud Data file format
VERSION 0.7
FIELDS x y z intensity
SIZE 4 4 4 4
TYPE F F F F
COUNT 1 1 1 1
WIDTH 1262
HEIGHT 1
VIEWPOINT 0 0 0 1 0 0 0
POINTS 1262
DATA ascii
-37.57774 18.149061 -1.9405285 6
-37.260105 18.63368 -1.9486471 6
-37.408432 26.950672 -1.7527561 6
-37.304901 27.541193 -1.8911278 6
-37.459972 30.293852 -1.7117536 6
-37.516308 32.687649 -1.7892751 6
-37.573265 -43.04324 -1.5300993 8
-37.570122 -31.245295 -1.4187021 7
-37.246159 -28.313583 -1.3771579 6
-37.254044 -22.454967 -1.2612525 8.0194292
-37.393398 -22.160503 -1.2573344 8
-37.540371 -21.877773 -1.2470741 8
-37.306335 -18.196802 -1.5257713 7
-37.352848 -16.56432 -1.2431437 8.00875
-37.41851 -13.332223 -1.4989756 7.2293997
-37.24342 -11.69285 -1.3536441 7
-37.493759 -10.390819 -1.4558972 5
-37.497547 -9.4935942 -1.5374352 6
-37.530872 -9.1589622 -1.4948102 7
-37.599167 -8.3025026 -1.2975059 7
-37.529572 -7.8041391 -1.3733364 7
-37.26498 7.2895947 -1.2954439 6
-37.587257 7.7324986 -1.2351724 6
-37.389763 8.5575809 -1.5113389 5
-37.389847 10.257618 -1.51197 5
-37.44598 12.224894 -1.5764743 5
-37.449131 15.608981 -1.3290658 6
-37.411205 20.327143 -1.3861771 6
-37.524681 22.89274 -1.4894904 6
-37.531227 -31.223457 -1.1427499 9.0904999
-37.329777 -29.568193 -0.97948575 9.0845003
-37.560764 -18.954964 -0.95708323 8.1260004
-37.363621 -16.545336 -1.1906159 8.0255003
-37.25457 -16.136023 -1.1546922 8.1470003
-37.531933 -15.710546 -1.1164804 8.1207504
-37.47451 -13.445507 -1.1727639 8.1294498
-37.308533 -12.520504 -0.95528322 8.13025
-37.409916 -11.502827 -1.1015074 7
-37.553185 -11.175323 -1.084326 8.1429996
-37.343025 -8.9975262 -1.0257367 8.0896673
-37.277966 -8.2107382 -1.0878376 8.1355009
-37.481918 -7.8750954 -0.97414219 8.7232924
-37.402725 1.8786561 -0.85800111 7
-37.398952 2.1660066 -0.85702872 7
-37.253357 9.075964 -1.1887709 6
-37.390785 10.177675 -1.1724398 6
-37.386467 13.367545 -0.81921637 7
-37.328392 13.853347 -0.81206709 7
-37.216129 26.678831 -1.1988126 7
-37.494503 27.732637 -1.0844616 7
-37.418396 29.709976 -1.1888366 7
-37.275406 34.328331 -0.8850311 7
-37.227367 -22.461475 -0.55359215 9
-37.325901 -22.196877 -0.51232845 9
-37.503609 -21.84046 -0.51936871 9
-37.584972 -21.05476 -0.50364655 9
-37.449425 -20.575974 -0.50325376 9.0463333
-37.481949 -17.03076 -0.58347684 9.1350002
-37.373943 -16.629189 -0.72427052 9.0129843
-37.327942 -16.166727 -0.65194106 9
-37.512276 -15.72322 -0.48304862 9.1207504
-37.557098 -14.903732 -0.70284975 9.1274996
-37.54398 -11.221443 -0.63034254 9.1429996
-37.410915 13.50066 -0.77868265 7
-37.293873 13.641733 -0.76401931 7
-37.343998 27.840578 -0.79586023 8.0909996
-37.482605 34.317036 -0.57494891 7
-37.487953 34.450428 -0.57190549 7
-37.341999 36.542084 -0.45435941 7
-37.456768 38.0541 -0.50640732 7
-37.213322 46.624023 -0.5842365 7
-37.44854 52.870895 -0.57355809 7
-37.303528 -43.355293 -0.22835629 9.06775
-37.488003 -16.931711 -0.0704173 10.128
-37.391689 -16.652258 -0.19975117 10
-37.377129 -16.341805 -0.062039249 10
-37.487133 -14.409081 -0.20932348 10.1275
-37.549637 -11.439957 -0.14746383 10.143
-37.314747 -9.1223125 -0.33201069 9.066
-37.433662 1.7893667 -0.07776136 8.0373001
-37.475719 2.1464195 -0.22802591 8
-37.58218 13.704669 -0.033987209 8.0764999
-37.339909 28.282068 -0.25901014 9.0924997
-37.226334 -22.418047 0.20016421 10
-37.333942 -22.215858 0.22402775 10.012
-37.519997 -21.845533 0.23216927 10
-37.482864 -21.059557 0.21631022 10.0593
-37.425892 -20.69256 0.25071537 10.0755
-37.475075 -17.066412 0.047547404 10.135
-37.361786 -16.613768 0.21655996 10.890173
-37.455364 -14.215883 0.26643845 11.1275
-37.208141 -13.777796 0.063619122 11.119
-37.252213 -9.0935593 0.31789339 10
-37.394913 1.7166032 0.1805173 8.0942497
-37.387924 2.2030163 0.013181933 8
-37.460262 13.38054 0.095645688 8.0265837
-37.381645 13.786601 0.078997515 8
-37.320782 50.950611 0.3222447 8.0240002
-37.478722 -22.130072 0.68280923 11
-37.465374 -16.823946 0.50013131 11
-37.371674 -16.627867 0.63659054 11.636364
-37.370407 -16.359919 0.51302367 11
-37.306274 1.5976666 0.49105373 8.092
-37.463333 1.7766956 0.6942848 9.0372
-37.463734 2.1427541 0.57945341 9.0184994
-37.376568 34.318394 0.69990808 8
-37.405659 34.500244 0.704162 8.0008326
-37.341125 35.123688 0.70621014 8
-37.439461 36.442577 0.67267632 8
-37.499821 38.162956 0.76934165 8
-37.564251 59.124588 0.7869547 8.0565004
-37.316299 59.421852 0.79728419 8.0749998
-37.243336 59.811535 0.74761295 8.0485001
-37.498791 -43.726345 1.1988889 10.1315
-37.336803 -43.263706 1.1709654 10.0425
-37.222225 -43.156551 1.1452807 10.0665
-37.232265 -22.466749 0.99277902 11
-37.400784 -22.179871 0.98789489 11.008654
-37.540787 -21.850653 0.93799907 11
-37.526611 -20.695305 1.0166185 11
-37.515388 -16.884899 1.0957102 12
-37.440937 -16.672924 1.0408159 12.366667
-37.283531 -16.381624 0.94035929 11
-37.290165 -9.052887 0.96469963 11
-37.468075 2.0882466 0.94197845 9.333333
-37.49633 13.413314 0.96269733 9.0156002
-37.428768 13.760253 0.97488129 9
-37.372437 59.60368 0.85867149 8.0480003
-37.342716 -43.172882 1.2109985 10
-37.386448 -22.19626 1.5150411 12.0577
-37.524387 -21.864586 1.5417371 12
-37.556366 -21.066242 1.4877486 12.097751
-37.597733 -16.807772 1.3222433 13
-37.371956 -16.662411 1.3445096 12.75
-37.450687 -15.792856 1.4735467 12.12075
-37.505573 -11.410843 1.2638038 13.143
-37.428123 1.7217704 1.4277186 9.5935001
-37.483498 2.1646702 1.3630246 10.0925
-37.355278 -52.804329 1.611383 10.0935
-37.402962 -23.745316 1.7673705 12.1241
-37.206215 -23.143938 1.7655841 12.111
-37.356018 -22.536247 1.7568526 12.031857
-37.425682 -22.217402 1.7740736 12
-37.528679 -21.943668 1.6833543 12
-37.546051 -16.927208 1.6917127 13
-37.408756 -16.656572 1.7470238 13.5
-37.341492 -16.356813 1.6418279 12
-37.491734 -11.413548 1.7456247 14.143
-37.277714 -9.0064049 1.6278855 12
-37.211193 -56.739353 2.3643773 10.1415
-37.413132 -23.714514 2.1389773 13.137
-37.373566 -22.177803 2.2794991 13.049182
-37.536976 -21.795235 2.3071129 13
-37.517277 -16.823256 2.2701342 14
-37.397121 -16.59663 2.1998777 14.409686
-37.222858 -15.534606 2.1300173 13.122
-37.413067 -9.6857157 2.2330658 13.043167
-37.293648 -8.9170456 2.294651 13
-37.437798 55.267693 2.2510355 9.0202503
-37.336414 -43.405972 2.5505834 11
-37.28236 -43.123169 2.5073113 11.066
-37.362026 -22.138086 2.5554361 13.021357
-37.49688 -21.845287 2.5107253 13.023334
-37.570244 -21.225462 2.4730425 13
-37.596542 -16.805922 2.4985404 14.573999
-37.400871 -16.695946 2.6122906 14.614926
-37.515079 -15.839651 2.734411 14.1215
-37.469948 40.076366 2.7164872 9.1619997
-37.206257 55.118908 2.6524036 9.0120001
-37.204166 -22.447451 3.0771625 14
-37.397327 -22.192375 3.000905 14.077571
-37.50491 -21.884581 3.0200641 14
-37.553692 -21.08544 3.0127563 14.049832
-37.547421 -16.850658 2.9540684 14.718666
-37.398399 -16.646141 2.9848387 14.666667
-37.441257 -15.829678 2.8436291 14.12
-37.422344 -8.9131098 2.9359457 14
-37.579281 59.177437 2.9729519 9.0474997
-37.367077 63.988293 3.0286114 10.091
-37.221779 -25.247429 3.3014483 13.1395
-37.207809 -22.420443 3.2497184 14
-37.390491 -22.150043 3.3738012 14.143499
-37.449612 -21.900787 3.356849 14.046666
-37.574596 -21.222815 3.2294331 14
-37.555721 -21.07744 3.5126259 15.145833
-37.511158 -16.802181 3.3215895 15
-37.347027 -16.71892 3.3056552 15.0311
-37.489918 -15.865306 3.4523292 15.080501
-37.535313 -8.9443436 3.5914898 15
-37.585342 37.596073 3.5391054 10.0425
-37.363621 54.682423 3.2311437 9.0185003
-37.59082 63.886871 3.2194982 9.0749998
-37.429604 -43.711945 3.9069808 12.13175
-37.415138 -43.333595 3.8773017 12.064751
-37.232346 -43.183578 3.9905019 12
-37.217312 -22.492022 3.9436126 15
-37.436504 -22.155018 3.8200998 15.0401
-37.524624 -21.887014 3.7544053 15
-37.513771 -21.116749 3.7472425 15.037374
-37.531357 -16.838974 3.6234815 15.15675
-37.386837 -16.512941 3.8055658 15
-37.485748 -8.9880657 3.6013567 15
-37.271072 -8.6755066 3.6718349 15.131
-37.560707 -43.735657 4.0630741 12.126
-37.32391 -43.521545 4.0334573 12
-37.217808 -22.457773 4.2027764 15
-37.351986 -22.188801 4.1856685 15.024917
-37.510647 -21.855539 4.13451 15.035
-37.571564 -21.224342 4.0170336 15
-37.566952 -20.909855 4.1247845 15
-37.524406 40.223068 4.6690888 10.162
-37.576077 80.128128 5.7040443 9.0310001
-37.323231 82.497665 5.9371767 9.0325003
-37.476089 84.598358 9.5941238 10.015
-36.823238 -79.328995 -4.2179556 7
-36.974957 -37.469566 -2.6071286 7
-36.818882 -35.434673 -2.5604167 7
-36.939556 -60.398731 -2.1969099 6
-36.952209 -42.546314 -2.2034125 7
-37.015263 -28.857254 -2.2235351 7
-37.198963 -27.80612 -2.0343204 8.0839996
-36.846333 -23.397961 -2.049824 7
-37.158558 -22.81988 -2.068542 7
-37.168884 -22.715033 -2.0134094 7
-36.928364 -19.715326 -2.2207518 6
-36.963696 -19.402565 -2.1569169 6
-36.91613 -13.408091 -2.2347155 6
-37.003586 -13.060591 -2.1680057 5
-37.022205 -12.119134 -2.3137498 4
-36.949177 -11.927655 -2.2890201 4
-37.021809 -11.144257 -2.2605169 4
-37.001141 -9.764472 -2.2797909 3.8
-36.904655 -9.2778025 -2.3916688 3
-37.042442 -8.9711304 -2.2998962 3.6666667
-36.894592 -8.5993633 -2.1845016 4.5
-36.955929 -8.1526556 -2.1961024 3.5
-37.009361 -7.8530998 -2.2735569 3.2
-36.96336 -7.2820249 -2.1869757 2.5
-36.984402 -6.9888573 -2.2420328 1.5
-37.064819 -6.5615139 -2.0946336 3.1666667
-36.996265 -6.1884265 -2.1964059 1.9375
-37.039791 -5.8212628 -2.124033 2.8571429
-36.990105 -5.3683872 -2.1219888 2.2142856
-37.011833 -5.0087714 -2.0861602 2.0526316
-36.993923 -4.6383834 -2.1292198 1.85
-37.022213 -4.2209196 -2.1557202 2.1764705
-37.003384 -3.7905414 -2.1451087 2.5714285
-36.984661 -3.4201307 -2.1833313 2.2307692
-36.998493 -3.0286736 -2.1796663 2.0769231
-36.975994 -2.5928042 -2.1468999 2.2307692
-37.030312 -2.1639066 -2.1950626 1.7272727
-37.071487 -1.8212111 -2.1734107 2.1111112
-36.948448 -1.4138345 -2.1570947 1.4545455
-37.020378 -0.9816609 -2.1065414 2.1111112
-37.026119 -0.6062032 -2.1009696 2
-37.063869 -0.12235215 -2.1398244 1.75
-37.035934 0.16091655 -2.0618665 1
-36.914528 0.63463342 -2.0958614 1
-36.991886 1.0055784 -2.0299289 2.5714285
-37.129105 1.4493316 -2.0528038 1
-36.915226 1.8080009 -2.0491204 1
-36.983913 2.1162381 -2.0270157 1.6
-36.995567 2.7233334 -2.0140965 1.25
-37.023003 3.0301454 -2.0403552 2.5714285
-36.885738 3.3835142 -2.0035717 1.3333334
-36.972153 3.8898871 -2.0023177 0
-36.96785 4.2916665 -2.0251012 4
-36.912788 5.0854845 -2.1118891 4
-36.956738 7.1120143 -2.0265865 6
-37.198227 7.5115652 -2.257983 4
-37.141247 7.8540769 -2.2586043 4
-37.051407 8.1976423 -2.196883 4.1999998
-36.979404 8.5435715 -2.230587 4
-36.873413 8.9429703 -2.2227907 4
-36.819065 9.2715435 -2.1944406 4
-37.062809 10.197504 -2.1798317 4
-36.997437 10.62304 -2.1985662 4
-36.925079 11.017166 -2.2130899 4
-37.070465 11.315355 -2.2218535 4
-36.909512 11.647083 -2.2242453 4
-37.050385 12.936419 -2.1890392 5
-37.145515 13.55972 -2.1486084 5
-37.031517 13.89104 -2.1512487 5
-36.823391 14.339795 -2.1506808 5
-37.037735 16.133299 -2.2681301 5
-37.088303 16.443422 -2.2287962 5
-37.125042 16.852999 -2.1730955 5
-36.887032 17.477161 -2.0812166 5
-37.077145 18.301945 -2.1534967 5
-36.812286 18.541767 -2.1506033 5
-36.836132 19.655035 -2.180748 5
-37.159885 31.813124 -2.1074288 6
-37.136662 -16.407038 -1.7203563 7
-36.977295 -16.288513 -1.7225776 7
-36.982361 -11.665823 -1.757911 5.5714288
-37.046059 -11.449832 -1.8070753 6.090909
-36.914871 -10.950906 -1.7420357 6
-36.828903 -9.8143759 -1.8276393 6
-37.01445 -9.3383646 -1.8566182 5
-37.017677 -9.1190166 -1.8944321 5
-37.13266 -8.5925751 -1.9023322 5
-37.017151 -8.2207937 -1.939387 4
-37.025513 -7.7499104 -1.90653 4.5999999
-37.081825 -7.3410349 -1.8888315 4.25
-36.929375 -6.9943962 -1.9315482 3.3939393
-37.025803 -6.6750731 -1.932777 4.3000002
-36.976246 -6.2502246 -1.9220959 3.03125
-37.015137 -5.7973247 -1.9811162 1.3333334
-37.025181 -5.3493524 -1.9911696 0.71428573
-36.988136 -5.1142964 -1.9957604 0.33333334
-37.135929 -1.5061624 -1.7970064 1.1
-36.947296 0.63879305 -1.9913684 0.66666669
-37.010593 1.0442144 -1.9914663 1.5
-36.988396 1.3733345 -1.9841022 2.25
-37.051727 1.7550814 -1.9714972 2.5
-36.948746 2.0851953 -1.9730005 1
-37.04166 2.5899639 -1.9538679 1.8888888
-36.919823 3.0141718 -1.9683915 2.375
-36.937675 3.2987006 -1.9553876 2.4285715
-37.034096 3.8270848 -1.9534922 2.0769231
-36.95356 4.2204828 -1.9645888 2.4444444
-37.065693 4.6587 -1.9590757 2.0833333
-36.987717 5.0126929 -1.9499054 2.5714285
-36.973183 5.3334761 -1.9450371 2.909091
-36.973114 5.7151546 -1.9324692 2.1111112
-36.988899 6.2234278 -1.9526114 2.1666667
-37.026245 6.5464411 -1.94341 2.7692308
-36.953957 7.0619273 -1.8799198 4.2800002
-37.029648 7.3113904 -1.9171289 3.8333333
-36.986553 7.9059749 -1.9154966 2.8
-37.006985 8.209836 -1.8792591 4.2307692
-37.012775 8.6972046 -1.9263802 4
-37.03196 9.0379591 -1.9315966 4.4285712
-37.000805 9.4264555 -1.9298964 3.75
-36.975597 9.7120438 -1.9053018 5
-36.842388 10.09119 -1.9087651 4
-37.016552 10.485775 -1.8941275 5.3333335
-37.038383 11.061849 -1.8010793 4.25
-37.004025 11.35798 -1.8452775 4.3333335
-37.121914 12.143514 -1.9245826 4
-36.846779 12.477023 -1.633763 5
-37.175209 12.956737 -1.7851812 6
-36.956596 13.298011 -1.7879523 6
-37.032848 13.656549 -1.6498847 5.5
-37.075768 14.151843 -1.9257331 6
-36.867146 14.463034 -1.9308637 6
-37.104702 15.003621 -1.8560463 6
-37.027424 15.353445 -1.8007694 5.6666665
-36.888351 15.833734 -1.7834945 5
-37.199455 16.047197 -1.7963742 5
-37.157757 16.875738 -1.8745427 5
-37.108093 17.447359 -1.788215 7
-36.965725 17.842264 -1.8796314 6.5
-36.862034 18.345673 -1.9727213 6
-36.918034 25.896147 -1.8040296 6
-37.148361 26.90724 -1.7224363 7
-36.896679 28.721636 -1.898464 6
-36.927937 29.999147 -1.7149738 6
-37.034618 30.481434 -1.7939677 7
-36.953552 32.88826 -1.8068151 6
-37.189365 -43.628277 -1.5918103 8.1315002
-37.098709 -43.30262 -1.5317515 8.0265999
-36.80888 -40.002087 -1.4539491 8.0985003
-36.801624 -39.996704 -1.381168 8.0985003
-37.050777 -30.870512 -1.4355358 6
-36.900703 -29.109152 -1.3554912 8.1405001
-37.026592 -22.864105 -1.2440739 8
-37.118076 -22.70985 -1.2670704 8.036643
-37.032852 -17.518147 -1.2341988 8
-37.050987 -16.494125 -1.240073 8.0214167
-36.96246 -16.341719 -1.2451043 8
-36.961941 -11.692364 -1.3633025 7.181818
-36.900269 -9.7723742 -1.4762349 7
-36.911625 -9.301959 -1.4534395 7
-36.991165 -7.5889063 -1.3704028 7
-36.814953 -6.8667727 -1.5039339 6
-36.961876 -6.4747791 -1.4244039 6
-36.97802 -6.2978768 -1.5177345 5.5999999
-37.081333 -1.4075365 -1.4339404 4.0476193
-36.992931 7.0666208 -1.5037252 5.5
-36.920853 8.9474916 -1.4956573 5
-36.818687 16.291668 -1.3093523 6
-37.105515 16.474566 -1.3083938 6
-36.835133 23.025616 -1.4566817 6
-37.094128 26.13113 -1.5756602 6
-37.134617 26.431273 -1.2466019 8.0924997
-37.073044 -18.071331 -0.91588426 8.1190004
-37.16198 -16.462191 -1.1601921 8.1549997
-36.952732 -16.334343 -1.1681492 8.0515833
-37.0439 -15.515807 -1.0923254 8.1219997
-37.110481 -13.246471 -1.188655 8.1280003
-37.045807 -12.564998 -0.9746179 8.1262503
-36.959824 -9.7087955 -1.1279262 8.043334
-37.016891 -7.7413425 -1.1027503 8.0696249
-36.983757 -1.3945791 -0.99306923 7.5329676
-37.037273 -1.1117147 -0.86634064 8.4350672
-36.978733 8.8521738 -1.1889051 6
-36.961887 26.316135 -1.1920544 7.5462499
-37.012997 26.685213 -1.1938061 7
-36.880814 30.416475 -1.1806591 7
-36.963383 34.235332 -0.91719478 7
-36.938477 57.326881 -1.1544924 7
-36.954563 -29.397974 -0.5616768 9.1344995
-36.981945 -22.893297 -0.50172704 9.036375
-37.10622 -22.643473 -0.51071858 9
-37.045086 -20.530123 -0.52245623 9.1394997
-37.054375 -17.604984 -0.62552774 9
-36.892925 -17.494188 -0.62956202 9
-37.064106 -16.483297 -0.72697735 9.0128183
-36.883785 -16.34515 -0.67333674 9.0252724
-36.994579 -15.520909 -0.47291619 9.1204996
-36.984341 -12.560003 -0.78224689 8.0959997
-36.871483 -9.8051815 -0.61062407 9.5
-36.935272 -1.3130344 -0.57226634 10.722222
-37.010036 -1.1192336 -0.7023806 9.666667
-37.007786 34.339584 -0.63199592 7
-37.127323 34.403397 -0.51122028 7
-36.807102 35.221996 -0.5015316 7
-36.961231 -43.390125 -0.21294188 9.0221663
-36.88488 -17.502867 -0.0043528327 10
-37.05175 -16.499308 -0.23069844 10
-36.839687 -16.378483 -0.22941725 10
-37.031284 -15.501967 -0.10214341 10.132
-36.889751 -14.646683 -0.24463275 10.12125
-36.999615 -13.886181 -0.025119582 11.139
-36.887978 -9.8450222 -0.084797472 11
-37.011932 -1.2498674 -0.39809799 12.004
-37.160973 50.843033 -0.11490567 6
-36.981373 -22.933521 0.23634504 10.046666
-37.099632 -22.668669 0.27857006 10
-37.046776 -17.620995 0.0044717873 10
-37.048409 -16.46764 0.25081509 11
-36.857372 -16.363125 0.25446206 11
-36.927742 -14.862385 0.080783501 11.141167
-36.848194 -14.726405 0.015532753 11.1375
-37.008984 -13.869752 0.17867559 11.398466
-36.932724 -9.7811203 0.26160291 12
-37.172577 -22.686291 0.74168742 11.14
-37.108253 -17.629139 0.62295002 11
-36.888435 -17.479744 0.60575151 11
-37.061256 -16.489239 0.62119299 11.5
-36.871716 -16.36837 0.64955407 11.833333
-36.903866 -13.973429 0.4355619 12.134126
-36.941563 -9.7819662 0.61272949 13
-36.939159 34.346687 0.71422762 8.0027504
-37.006496 34.439251 0.69567758 8.0015717
-37.019676 35.199436 0.70690185 8
-37.035069 36.557434 0.69123173 8.0532503
-37.051498 38.271858 0.76512468 8.0530005
-37.078461 59.888206 0.68167287 9.0909996
-36.863815 -43.764122 1.1962771 10
-37.071846 -43.033329 1.1286736 10.06525
-37.003723 -22.900957 1.0571753 11.0222
-37.117142 -22.693193 1.0302169 11.032187
-37.051414 -16.484249 1.0644552 12.5
-36.924076 -16.328114 0.98180497 11.9
-36.96981 -9.7636948 0.96683049 14
-37.042782 47.02763 0.98902339 8.0559998
-36.925606 58.904495 1.1351476 8.0620003
-37.053097 59.475807 0.83396417 8.0495005
-37.106174 59.842285 0.85366267 8.0485001
-37.058887 60.50518 0.84070957 8.0900002
-37.14938 -43.228783 1.2130275 10
-37.082138 -22.825237 1.4488375 12.14
-37.117138 -22.687609 1.5556957 12.143
-37.057808 -17.632826 1.2497629 12
-36.88184 -17.507582 1.2306105 12
-37.044216 -16.487177 1.4214413 13.008639
-36.839531 -16.374138 1.3266231 13
-36.88385 -15.575757 1.549894 12.12125
-36.954582 -9.7000666 1.3178806 15
-37.044765 -24.882006 1.7866256 12.1415
-36.893486 -24.764971 1.7907418 12.142
-37.03661 -23.612028 1.766143 12.111
-36.959015 -23.432545 1.7212189 12.145
-37.001709 -22.944719 1.8134445 12.048499
-37.12886 -22.621723 1.9314015 12
-37.045517 -17.646631 1.8781052 13.066
-36.95726 -17.52495 1.8567224 13
-37.054874 -16.499022 1.7357106 13.621174
-36.859417 -16.329468 1.7125133 13.333333
-37.166206 -9.2839518 1.636822 12
-36.850597 -42.503204 2.3784223 11.1325
-37.092789 -22.65724 2.3202107 13.0715
-37.086475 -16.449722 2.1741524 14.51274
-36.918156 -16.328295 2.1839333 14.578596
-36.88353 -15.582083 2.2559085 13.1205
-37.154903 -9.2942667 2.2978945 13
-36.986843 37.786205 2.1462748 9.0454998
-37.14806 39.633194 2.256948 9.052
-37.127285 41.776333 2.3173571 9.0530005
-36.965939 -43.7117 2.4850652 11
-37.117363 -43.313835 2.6010196 11
-37.016937 -43.072571 2.4870625 11.0985
-36.85453 -23.360594 2.5921619 13.111
-36.950169 -22.93145 2.627732 13.043167
-37.106487 -22.615553 2.5681465 13.016
-37.027508 -17.649937 2.5158052 14
-36.837254 -17.513285 2.4842086 14
-37.00301 -16.479342 2.5950141 14.71527
-36.837772 -16.262581 2.5224524 14
-36.991604 -22.961035 3.025702 14.14275
-37.117695 -22.633848 3.0922477 14.0715
-37.016315 -17.681433 3.1785173 15.066
-36.885151 -17.536304 3.1413388 15
-37.025997 -16.560829 2.9439802 14.940417
-37.007961 -16.302673 3.1317973 14
-36.83614 -15.603002 2.9611416 14.1205
-36.880432 -15.598582 2.8638349 14.122
-37.08308 -9.3283749 2.9825399 14
-37.100796 52.744564 2.9922602 9.0559998
-37.020035 54.598175 2.852056 9.0255003
-36.917027 59.125229 3.0333943 9.05375
-37.092705 59.234276 2.9796386 9.0495005
-36.893108 79.677719 2.923676 8.026
-36.995647 -24.621817 3.2951541 13.141
-36.949947 -22.957605 3.3916521 14.0222
-37.073174 -22.743797 3.4797504 14.322
-37.022583 -16.550146 3.3306293 15
-36.847641 -15.614048 3.566103 15.122
-36.988491 -43.81385 3.8775985 12
-37.108402 -43.374046 3.8443449 12.06575
-36.982857 -22.960888 3.9592762 15.133834
-37.141804 -22.646929 3.8012967 15.0715
-36.958401 -17.476404 3.6729982 15.1445
-37.163166 -16.65164 3.6971414 15.157249
-37.013165 -16.329432 3.8831837 15
-36.816505 -15.618136 3.6839681 15.1205
-37.028053 -9.358017 3.6885731 15.032875
-36.943398 -23.001804 4.2715387 15.0222
-37.073029 -22.773487 4.1407723 15.049333
-37.096325 -22.722712 4.4255409 15
-37.100266 58.840721 5.0294909 10.09
-36.806961 80.981613 5.83464 9.0275002
-36.830715 81.285622 5.8447056 9.0295
-37.057415 81.909111 5.8961029 9.0290003
-36.832001 82.463943 5.9777355 9.026
-36.936241 84.087547 6.0854559 9.0415001
-37.116093 87.83625 6.2968311 9.0515003
-37.015522 88.407425 6.1590996 9.0524998
-37.03281 84.698151 9.4578009 10.02925
-36.946167 84.697662 9.6271172 10.0275
-36.931671 84.825882 9.6149054 10.0275
-36.792 -32.014465 -2.3537292 7
-36.456406 -25.300896 -2.0379858 7
-36.534325 -25.008938 -2.114116 7
-36.476612 -23.578575 -2.0485749 7
-36.4921 -17.98275 -2.0385571 6
-36.693718 -13.393144 -2.1936877 5.25
-36.459286 -12.542929 -2.3354251 4
-36.672604 -12.202602 -2.3073614 4
-36.740971 -11.47855 -2.2774158 4
-36.548019 -10.15855 -2.304256 3
-36.697567 -9.8409405 -2.2851946 4
-36.502296 -9.3265314 -2.2669075 3
-36.724571 -9.0439081 -2.267015 4
-36.516975 -8.5861235 -2.2672272 2.75
-36.756344 -8.3526993 -2.2532921 3
-36.544727 -7.7575016 -2.1745028 3.3333333
-36.620792 -7.4123683 -2.2364569 1.9166666
-36.669628 -7.1050954 -2.2689302 2
-36.585335 -6.5829849 -2.214678 1.5
-36.614662 -6.1963806 -2.1487019 3
-36.604034 -5.7714214 -2.1326103 2.5789473
-36.609467 -5.4350133 -2.1235328 2.4285715
-36.631416 -4.9305229 -2.0692315 1.6923077
-36.613415 -4.5770268 -2.1041412 2.1666667
-36.632839 -4.1573424 -2.1454437 1.95
-36.6189 -3.7981141 -2.1533747 2.125
-36.619144 -3.4417269 -2.1421609 1.9090909
-36.609711 -3.0374026 -2.1358654 1.7777778
-36.598541 -2.6435878 -2.1450238 1.1538461
-36.583183 -2.1861131 -2.1621614 1.5
-36.56097 -1.7679467 -2.1013968 2.5
-36.605114 -1.4176672 -2.0965483 1.8888888
-36.681881 -1.0276676 -2.0937676 1.75
-36.560646 -0.53349924 -2.0818202 0.75
-36.682049 -0.18569286 -2.0949652 1.5
-36.577969 0.21002802 -2.0693343 1.75
-36.653202 0.60695565 -2.0501831 1.5
-36.559242 1.0604993 -2.0773726 1.5
-36.70903 1.4520574 -2.1051884 2.5
-36.629032 1.7930783 -2.1169004 2
-36.572639 2.211539 -2.0767412 2.3333333
-36.611244 2.6044137 -2.0236192 1
-36.571056 3.0010993 -2.0225341 1.3333334
-36.526306 3.3776505 -2.0235178 1.6666666
-36.656631 3.7168949 -2.0063219 1
-36.731728 4.1801186 -2.0032971 0
-36.579632 4.5391865 -2.0929973 3
-36.55545 5.3639555 -2.1220345 3.75
-36.628658 5.8158984 -2.2520039 5
-36.577019 6.2249069 -2.2384319 5
-36.570351 6.568459 -2.1614988 3.3333333
-36.433407 7.4944205 -2.074995 6
-36.77935 8.3353233 -2.0756459 5
-36.641644 8.6094446 -2.0803678 5
-36.521614 8.8369513 -2.0842156 5
-36.685925 9.4458332 -2.2279491 4
-36.571312 9.7811556 -2.2157059 4
-36.470505 10.124535 -2.1847806 4
-36.73745 10.767207 -2.1733124 4
-36.54467 11.052465 -2.1680713 4
-36.623966 11.472968 -2.2074029 4
-36.598698 11.87937 -2.2170413 4
-36.570965 12.148253 -2.2191579 4
-36.603531 14.784652 -2.1498804 5
-36.48941 15.056245 -2.1518407 5
-36.508278 17.262493 -2.1645267 5
-36.561489 17.797886 -2.0789421 5
-36.601467 19.88785 -2.1798992 5
-36.515614 22.671412 -2.1722107 4
-36.61869 -24.193394 -1.9981562 7
-36.504162 -16.062618 -1.7228911 7
-36.736526 -13.645637 -1.6556756 7
-36.511967 -12.688624 -1.619364 7
-36.706345 -11.627497 -1.8431376 5.6666665
-36.529961 -11.557849 -1.820658 6
-36.577251 -11.011133 -1.7634158 6
-36.411228 -10.788604 -1.7395002 6
-36.594856 -10.257468 -1.8707112 6
-36.656494 -9.3831673 -1.8856906 5
-36.69334 -8.1030865 -1.9426404 4.1428571
-36.595314 -7.8504863 -1.9611429 4.25
-36.603859 -7.4518399 -1.8434093 4.5
-36.657162 -6.9613872 -1.8258859 4.1666665
-36.522072 -6.6052027 -1.8515278 4.1111112
-36.589802 -6.1456656 -1.9065527 3.6666665
-36.640999 -5.8020067 -1.961329 2.625
-36.576607 -5.4520388 -1.9794587 1.2857143
-36.611252 -4.9775629 -1.9917691 0.42857143
-36.722191 -0.96795833 -1.7735378 1.5
-36.428341 -0.66501182 -1.6630721 1.5
-36.498188 0.61463392 -1.9980525 1
-36.575939 0.94082063 -1.9946376 2.6666667
-36.56707 1.4032413 -1.9798257 1
-36.564941 1.756813 -1.9830762 0.33333334
-36.576168 2.2283266 -1.9652245 2.9000001
-36.647163 2.5233741 -1.9617304 2.2857144
-36.575676 2.9941571 -1.9561007 1.8181819
-36.642357 3.3485916 -1.9584075 1.6666666
-36.635895 3.796685 -1.9602438 2.5
-36.577255 4.147614 -1.9524021 1.875
-36.615795 4.5918083 -1.9550147 2
-36.595242 5.0389042 -1.9631418 3
-36.527344 5.3655229 -1.9412776 3.2
-36.561008 5.8444228 -1.9516027 2.6923077
-36.613152 6.1679096 -1.9588623 2.8333333
-36.598862 6.5494986 -1.9497188 2.7142856
-36.594341 7.0144663 -1.9562851 2.375
-36.599712 7.4369512 -1.9177046 3.0999999
-36.507858 7.8229451 -1.8493133 3.8333333
-36.611313 8.2206774 -1.889915 3.5833333
-36.582977 8.5943003 -1.9290453 4.6666665
-36.593796 9.0832462 -1.950255 4
-36.752831 9.3970003 -1.9435146 4
-36.587883 9.8287964 -1.9539046 4.2222223
-36.479767 10.074912 -1.9049966 4
-36.640549 10.607273 -1.8116481 4.6666665
-36.605576 10.948985 -1.8810505 5
-36.645798 11.452125 -1.8946221 4
-36.597309 12.150207 -1.8102127 4.5999999
-36.774433 13.56433 -1.8525263 5.5
-36.693317 13.879746 -1.784019 5.5
-36.513763 14.102543 -1.7915215 5.6666665
-36.686275 14.724849 -1.9350628 6
-36.445549 14.992317 -1.8361423 5.5
-36.682537 15.448286 -1.8273668 5
-36.624691 15.756725 -1.7935047 5.8333335
-36.525982 16.070105 -1.8211058 6.3333335
-36.664162 16.987358 -1.8906826 5
-36.558437 18.190714 -1.7979511 7
-36.633636 18.93383 -1.9833213 6
-36.427559 19.429028 -1.9919597 6
-36.590118 26.358662 -1.7139782 6
-36.759148 26.999041 -1.7702397 6
-36.508385 29.772255 -1.8116937 6
-36.472706 32.947491 -1.8192153 6
-36.627308 50.705944 -1.8206054 5
-36.647915 -35.489983 -1.4379841 8.137166
-36.421883 -25.046829 -1.2917504 8
-36.531788 -24.088694 -1.2285672 8
-36.408127 -23.622885 -1.2834717 8.1470003
-36.589741 -23.358856 -1.2777556 8.1247501
-36.665066 -22.92841 -1.2066455 8
-36.700436 -18.030249 -1.5020301 7
-36.763863 -17.305595 -1.2334599 8
-36.648258 -16.211073 -1.249341 8
-36.498619 -12.873079 -1.5450417 7
-36.477074 -12.532904 -1.5290995 7
-36.600193 -11.649413 -1.3730043 7
-36.786396 -11.585345 -1.2321925 8
-36.585747 -7.3176827 -1.488531 6.125
-36.670559 -6.9920321 -1.3992807 6.3333335
-36.598289 -6.631443 -1.4081926 6.1666665
-36.510574 -6.1669979 -1.4189265 5.875
-36.484913 -5.91151 -1.534667 6
-36.577602 -0.89327109 -1.4593208 3.8583333
-36.548916 -0.61417794 -1.4577512 3.1500001
-36.573982 7.5578432 -1.4412657 5
-36.433167 7.7520175 -1.3584073 5.8000002
-36.505753 8.5009537 -1.3295425 6
-36.630829 8.8032541 -1.2925534 6
-36.41592 10.334955 -1.2145717 6
-36.510365 12.253989 -1.2183639 6
-36.419426 14.82277 -1.2528143 6
-36.442123 17.194099 -1.5983968 6
-36.757519 20.83181 -1.4002322 6
-36.685734 26.335781 -1.3916682 6.5
-36.614826 26.405258 -1.2328064 8.092
-36.478779 -18.039631 -0.92203218 8.1195002
-36.559383 -17.941328 -0.92167294 8.1253328
-36.618 -16.167519 -1.176185 8.0388746
-36.584461 -15.340606 -1.1297925 8
-36.781349 -12.890004 -0.99939579 7
-36.644718 -12.50091 -0.94777262 8.1208563
-36.623173 -10.128368 -1.1363872 8.1315002
-36.582596 -7.6472454 -1.0957814 8.1387501
-36.563473 -7.2819972 -1.0792812 8.0997496
-36.751072 -6.7528057 -1.0747612 8.1339998
-36.489014 -0.88210505 -1.0034884 7.3611112
-36.59013 -0.70577443 -1.0035865 7.3133125
-36.454693 8.3923664 -1.1903586 6
-36.417023 8.4852676 -1.1112229 7
-36.643497 26.335766 -1.1822352 7.546
-36.718121 26.414215 -1.1853678 7
-36.630161 34.289917 -0.89045507 7
-36.541084 -35.366943 -0.41189903 9.1312504
-36.4277 -28.962299 -0.56102341 9.1350002
-36.414028 -28.790222 -0.47264227 9.1389999
-36.402992 -25.044884 -0.46256131 9
-36.484222 -24.122101 -0.46997863 9
-36.42918 -18.02878 -0.76578319 8.1029997
-36.60112 -16.223207 -0.73159426 9.0043392
-36.601791 -15.936799 -0.44372728 9
-36.66534 -15.399547 -0.54114199 9.0679998
-36.525921 -14.969263 -0.68558842 9
-36.734318 -14.597739 -0.50226492 9.1582499
-36.538689 -14.202128 -0.49710166 9.364625
-36.481842 -13.999895 -0.54904568 9.1575003
-36.483334 -0.89950818 -0.6103363 10.300799
-36.596603 -0.74243796 -0.61081266 10.25
-36.554802 34.254498 -0.57683265 7
-36.49514 40.622215 -0.65297985 7
-36.670319 53.895737 -0.58343017 7
-36.773972 -43.359825 -0.18538702 9
-36.642345 -22.987713 -0.34995767 9
-36.588497 -16.248611 -0.2366994 10.005464
-36.591999 -15.03042 -0.12482033 10.045333
-36.695801 -14.535296 -0.23391971 10.15
-36.524357 -14.115174 -0.3422015 10.118556
-36.635731 -13.996551 -0.24478674 10.151
-36.582283 -0.89955866 -0.38536429 12
-36.762661 51.043785 -0.067673795 6
-36.488335 -16.757431 0.02821088 10.14
-36.614738 -16.244879 0.2003945 10.806452
-36.499252 -15.958022 0.2939173 10
-36.637047 -15.443875 0.2343071 10
-36.600479 -14.96162 0.2989856 11.0495
-36.734837 -14.521924 0.23933105 11.122
-36.586552 -14.317425 0.11686125 10.54465
-36.601444 -13.946218 0.12685874 10.6435
-36.428123 -13.128694 0.27332392 10
-36.553661 51.671669 0.34270316 8.0235004
-36.618286 -23.002531 0.53585351 10
-36.763573 -16.424276 0.45220566 11
-36.600086 -16.248436 0.66048408 11.706378
-36.69957 -14.509876 0.49315855 12.138333
-36.591602 34.348259 0.69038093 8
-36.655823 34.433327 0.68163836 8.0039005
-36.642262 35.249054 0.70587188 8
-36.428925 36.320507 0.6391328 8
-36.400223 36.942787 0.78675866 8.0515003
-36.477364 38.333561 0.7561053 8.0524998
-36.563084 58.86121 0.79747796 8.0559998
-36.697811 -42.880444 1.1475441 10.133
-36.406185 -25.160316 1.192652 11
-36.452518 -24.232391 1.0887311 11
-36.739933 -23.450741 1.0881071 11.1105
-36.539627 -17.247087 1.1918991 12
-36.616737 -16.260916 1.0293788 12.387096
-36.454681 -15.964987 1.0180882 11
-36.610256 -15.45962 0.91698527 11
-36.615612 56.662071 0.85215622 8.0115004
-36.621559 -24.131504 1.3814486 11.1415
-36.735912 -17.388887 1.2130163 12
-36.601185 -16.268988 1.4239949 12.935484
-36.443707 -15.401776 1.5888461 12
-36.48682 59.452953 1.3556101 8.0815001
-36.51083 -25.910698 1.8199263 12.1385
-36.544201 -24.612638 1.8109405 12.142499
-36.452335 -24.166965 1.7971578 12.1435
-36.509418 -23.996849 1.7292395 12.1425
-36.630829 -17.340328 1.8203244 13
-36.602531 -16.252455 1.7494034 13.6875
-36.471523 -15.925615 1.7486447 12
-36.570747 -15.462521 1.61499 12
-36.452469 58.951466 1.669176 9.0889997
-36.421898 69.106033 1.8600931 8.0585003
-36.591846 -23.854485 2.257966 12.1415
-36.717236 -16.424753 2.3381479 13
-36.58831 -16.184448 2.1386197 14.326087
-36.537624 -15.450602 2.2926683 13
-36.501076 -24.418144 2.6625166 13.1105
-36.589478 -24.181208 2.6739933 13.036667
-36.735313 -23.796757 2.5792162 13.111
-36.510216 -23.556328 2.6134267 13.147
-36.622875 -17.34742 2.4468176 14
-36.707539 -16.429716 2.767839 15
-36.62056 -16.268339 2.6116471 14.5
-36.627178 -17.348476 3.0909557 15
-36.736393 -16.430176 3.1168888 14.5
-36.555443 -16.260168 2.9557338 14.735785
-36.510643 -15.466402 2.9978862 14
-36.616604 58.880554 2.9341648 9.0559998
-36.411404 80.053902 2.8068721 8.0319996
-36.484299 -24.358202 3.3922589 13.713834
-36.797527 -23.374363 3.3078141 14.1115
-36.600815 -16.327953 3.3586252 15
-36.741512 -43.872513 3.9854255 12.129
-36.68705 -16.454971 3.7976613 15.052834
-36.711296 -16.18972 3.9471948 15
-36.525871 -15.503961 3.7522326 15
-36.469734 41.289772 3.6783478 10.0525
-36.557259 -23.552959 4.2706132 15.111
-36.447063 104.10755 11.564251 10.026
-36.221123 -33.00124 -2.301522 7
-36.002342 -26.44223 -2.1803458 7
-36.265419 -25.761368 -2.1484845 7
-36.260075 -24.050959 -2.1530819 7
-36.0928 -17.887405 -2.0175729 6
-36.154587 -13.30654 -2.0264192 4
-36.182503 -12.612926 -2.3333313 4
-36.382595 -12.3108 -2.3088729 4
-36.26223 -11.767835 -2.0143089 6
-36.183327 -10.55608 -2.2237768 4
-36.244099 -10.273062 -2.3024142 3
-36.18832 -9.7750769 -2.2975841 4.3333335
-36.283287 -9.5352001 -2.2733557 3
-36.102894 -8.9194088 -2.2834666 3
-36.27644 -8.7715178 -2.2741809 3
-36.01329 -8.0946255 -2.2572639 2
-36.214802 -7.8003964 -2.2218328 2.5555556
-36.116295 -7.4346762 -2.0970726 5
-36.102753 -6.9746275 -2.2194498 1
-36.205593 -6.6659808 -2.2487001 1.125
-36.163609 -6.1923795 -2.1644967 3
-36.250607 -5.7479806 -2.1400309 2.9000001
-36.178116 -5.3933949 -2.0564005 3.2727273
-36.192993 -4.9977994 -2.0826788 1.5384616
-36.150105 -4.6112328 -2.0755146 1.3157895
-36.188869 -4.2270918 -2.1293268 1.7037036
-36.170918 -3.8479052 -2.1352136 1.6923077
-36.195152 -3.4077251 -2.1521912 1.6666666
-36.156696 -3.0042045 -2.1489916 1.7333333
-36.194153 -2.5364013 -2.1552787 1.25
-36.18539 -2.1575968 -2.1840889 1.4545455
-36.341812 -1.8423849 -2.1540794 0
-36.251583 -1.4769646 -2.1683872 0.89999998
-36.272518 -1.0075783 -2.0809457 1.25
-36.233959 -0.59608537 -2.0409663 2.5
-36.20422 -0.24022055 -2.0660431 2.5
-36.128323 0.19404781 -2.0698116 1.7142857
-36.194958 0.64983779 -2.0526614 1
-36.227364 0.98685771 -2.1138232 1.5
-36.263836 1.3966767 -2.1035283 3
-36.167488 1.7807183 -2.1340699 3.1428571
-36.213722 2.1825933 -2.1249075 2.5555556
-36.164455 2.5831261 -2.1151478 2.5
-36.139225 3.0453286 -2.1882226 2.7272727
-36.176723 3.4094827 -2.1217518 2.6666667
-36.179508 3.7842739 -2.1365516 2.4285715
-36.085873 4.2035007 -2.1545918 2.5
-36.17313 4.583909 -2.187305 3.4000001
-36.175232 5.006146 -2.1769485 3.8
-36.19664 5.4745755 -2.115392 2.8333333
-36.127155 5.8464146 -2.1228507 3.5
-36.194397 6.2685165 -2.1481717 3.3333333
-36.133118 6.5770721 -2.1200619 2.4000001
-36.108776 6.9246607 -2.2081432 3.5
-36.118557 7.3800116 -2.0896716 2
-36.131561 7.7689614 -2.0718992 3.2
-36.363045 9.1024675 -2.0877812 5
-36.232552 9.3276625 -2.0914609 5
-36.075451 9.6044474 -2.0966592 5
-36.389561 10.227192 -2.2121861 4
-36.214947 10.603611 -2.2188776 4
-36.05822 11.014768 -2.2093792 4
-36.279255 11.443569 -2.1623757 4
-36.18401 11.800784 -2.1781812 4
-36.141865 12.184011 -2.2014387 4
-36.223175 12.502948 -2.2142613 4
-36.047825 12.974764 -2.221561 4
-36.336189 15.374252 -2.1528368 5
-36.166492 15.686829 -2.1526382 5
-36.171112 17.483244 -2.1606007 5
-36.222038 18.10437 -2.0755785 5
-36.334114 18.995653 -2.148303 5
-36.078533 19.25453 -2.1490204 5
-36.066944 20.376108 -2.1768234 5
-36.244209 23.137823 -2.1706786 4
-36.018688 23.539291 -2.1708095 4
-36.114117 -47.005482 -1.8236388 6
-36.189629 -15.909478 -1.6818472 7
-36.378044 -14.034426 -1.6077967 7
-36.019569 -13.828441 -1.6435599 7
-36.359608 -12.868442 -1.702597 7
-36.038086 -12.744455 -1.6211374 7
-36.286068 -12.199682 -1.6029888 7
-36.214939 -11.681855 -1.8069013 5.625
-36.132038 -11.039655 -1.7788 6
-36.22842 -10.619915 -1.7891234 6
-36.02544 -10.0219 -1.9757228 6
-36.093822 -9.6159058 -1.9148113 6
-36.223743 -9.3633642 -1.885718 5.1666665
-36.232224 -7.8490992 -1.9273572 4
-36.194431 -7.3858056 -1.8529643 4.7692308
-36.280449 -6.9730315 -1.7823356 5
-36.301491 -6.6176095 -1.826833 4.1705885
-36.238483 -6.2481737 -1.8351965 4.2954545
-36.179523 -5.8088975 -1.9510149 3
-36.253601 -5.411232 -1.9128481 2.4166665
-36.182693 -5.0585198 -1.9296809 1.8333334
-36.298149 -4.6228385 -1.99692 0
-36.347992 -0.85124332 -1.6771767 2
-36.174358 0.98562407 -1.9862821 1.6666666
-36.134953 1.4677269 -1.9858315 2
-36.223232 1.7766032 -1.988634 2
-36.211784 2.2206113 -1.9717637 1.5555556
-36.154617 2.6146238 -1.9690925 2.1666667
-36.252453 3.0212545 -1.9501672 1.3333334
-36.22435 3.3755698 -1.9532657 2
-36.170467 3.7697794 -1.9623556 2.375
-36.230263 4.1478214 -1.9570712 2.25
-36.211452 4.5901856 -1.955503 2.25
-36.195789 4.9697371 -1.9687492 3.1428571
-36.157185 5.3383965 -1.9480692 2.4444444
-36.213448 5.8114085 -1.9553616 2.75
-36.195919 6.2006788 -1.9461164 3.4285715
-36.246849 6.5442109 -1.9545181 2
-36.193386 6.925529 -1.9424535 3.090909
-36.27346 7.4044542 -1.9389122 3.3636363
-36.1688 7.8087811 -1.9436831 3.6666667
-36.173206 8.2415361 -1.9194973 2.8333333
-36.225185 8.6857777 -1.8138435 4.5714288
-36.187935 8.9345236 -1.9153427 4.4000001
-36.181854 9.4006443 -1.9470602 3.75
-36.165779 9.8906212 -1.974903 4
-36.187035 10.129709 -1.9134002 4.8000002
-36.209267 10.63343 -1.8523313 4
-36.190895 11.025502 -1.8477331 4.75
-36.221424 11.452827 -1.9097114 4.4000001
-36.104698 11.898246 -1.6035969 5
-36.321629 12.019367 -1.6093161 5
-36.108868 13.341152 -1.8423795 5
-36.317245 14.360952 -1.8662137 5.5
-36.122158 14.644936 -1.7640707 5.75
-36.258259 15.370176 -1.8993286 5.5
-36.17709 15.773593 -1.8636672 5.3333335
-36.16473 16.338034 -1.7706972 6.5
-36.305466 16.502121 -1.8507644 6
-36.161575 17.081976 -1.907462 5
-36.295753 18.558304 -1.8032136 7
-36.09153 19.458029 -1.9436915 6
-36.003178 24.664251 -1.6035434 6
-36.37722 27.04307 -1.7814789 6
-36.138416 -52.350163 -1.5652027 8.0944996
-36.254959 -39.683292 -1.4191619 8.099
-36.00943 -26.195274 -1.3090206 8
-36.167316 -25.792599 -1.3035794 8.1084995
-36.171486 -24.858654 -1.264609 8
-36.337112 -23.576447 -1.256513 8
-36.121235 -18.579449 -1.4916332 7
-36.045654 -18.029245 -1.4797832 7
-36.186039 -17.951794 -1.4641377 7
-36.293274 -16.046677 -1.222114 8.0216665
-36.18449 -15.960441 -1.2216787 8.0174284
-36.323929 -14.084158 -1.2756863 7.8987861
-36.202999 -12.935953 -1.2921114 7.8608751
-36.246952 -12.58285 -1.333836 7.6908503
-36.124649 -12.177848 -1.3574151 7.6393576
-36.159737 -11.695615 -1.4070538 6.7142859
-36.329693 -11.575737 -1.3170965 7
-36.308037 -10.845027 -1.5189154 6
-36.285564 -10.744004 -1.5633862 7
-36.241432 -9.3428841 -1.4526818 7
-36.088284 -7.4009418 -1.4174699 6.5
-36.132458 -7.0940189 -1.3880296 7
-36.287521 -6.6056366 -1.4055729 6.2173915
-36.229885 -6.3115816 -1.3805783 6.2301588
-36.272144 -5.4923334 -1.4823918 6
-36.364285 -0.85748118 -1.4890617 4
-36.29211 -0.76334059 -1.4416461 3.5
-36.395878 7.5009437 -1.5692731 5
-36.318199 7.73738 -1.5261023 5.75
-36.114216 8.1842527 -1.3302538 5.8333335
-36.329586 8.4889545 -1.2790844 6
-36.021694 9.2131662 -1.200857 6
-36.143066 10.26609 -1.390098 5.5
-36.099957 11.903444 -1.2133284 6
-36.334587 16.169584 -1.3370013 6
-36.370594 50.927509 -1.301638 7
-36.112141 -18.546215 -0.93889248 8.1345005
-36.124474 -18.186901 -0.93102771 7.9629998
-36.178482 -17.874704 -0.90917128 7.8478746
-36.39896 -16.034065 -1.1956171 8.1234999
-36.134834 -15.926009 -1.1725198 8.0306873
-36.271435 -14.10253 -0.99558413 8.4605446
-36.068859 -13.676902 -0.91773003 8.1176672
-36.09972 -13.332644 -0.99955601 8.1029997
-36.124123 -12.847964 -0.94968766 7.8972001
-36.211075 -12.60418 -1.0989503 8.1281252
-36.036148 -12.38273 -1.1659147 8.1316252
-36.241783 -10.762736 -1.1060461 8
-36.010277 -9.6368389 -1.1100371 8.1370001
-36.219742 -9.3244019 -1.1043018 8
-36.036354 -8.1303606 -1.0427645 8
-36.207233 -7.3803554 -1.0427504 8.3769274
-36.315113 -7.0060368 -1.0961281 8.1475
-36.099125 -6.3572812 -1.1075164 8.1420002
-36.308407 -0.96457887 -0.82231498 8.7532501
-36.098568 8.0501823 -1.1906452 6
-36.167027 8.5665836 -1.0259291 6.5
-36.063087 10.418414 -0.85795379 7
-36.33075 12.435987 -0.81237686 7
-36.26228 26.323132 -1.1782517 7
-36.178875 26.462063 -1.1750252 7
-36.355396 27.831503 -1.0188881 7
-36.110176 28.12668 -0.93155187 7
-36.110016 34.057835 -0.94239187 7
-36.236435 51.229504 -1.0172057 7
-36.068001 -25.868946 -0.46446377 9.1084995
-36.280785 -25.358042 -0.46463135 9.0547504
-36.232609 -24.916878 -0.46614859 9
-36.18428 -24.521433 -0.43349579 9.1420002
-36.076118 -24.0494 -0.45596933 9
-36.263382 -23.636089 -0.45015454 9
-36.109596 -18.141207 -0.76243687 8.1035004
-36.248215 -16.078823 -0.74136376 9.0118179
-36.124931 -15.948078 -0.67158538 9
-36.165092 -15.344433 -0.63496071 9
-36.259239 -14.122645 -0.72680157 9.1006994
-36.225239 -13.446044 -0.53580469 8.7407503
-36.014275 -12.910715 -0.77585745 8.0979996
-36.093658 -12.689505 -0.77670026 8.0974998
-36.161987 -10.817818 -0.65445399 9
-36.170151 -9.3630838 -0.67322558 9.2842503
-36.002121 -8.1781073 -0.61157387 9
-36.391827 -0.97105825 -0.79173422 9.0035
-36.141933 34.205711 -0.59240597 7
-36.261108 35.264431 -0.50539923 7
-36.017395 37.011627 -0.46536428 7
-36.268223 -52.03743 -0.010773259 9.0944996
-36.042404 -16.901749 -0.047462463 10.06675
-36.253349 -16.075005 -0.2417876 10.005166
-36.061832 -15.970054 -0.21556419 10
-36.118107 -15.234503 -0.075185604 10
-36.296001 -14.881271 -0.1585049 10.133
-36.180229 -14.730002 -0.10307308 10.137
-36.247559 -14.042661 -0.32641643 10.057
-36.145367 -13.851259 -0.27992055 10.282822
-36.184944 -10.835493 -0.18417683 10
-36.251984 -9.4442272 -0.22741571 10.5
-36.0266 -8.1711521 -0.16388048 10
-36.338146 58.782955 -0.33829767 8.0889997
-36.014889 -52.126892 0.040997867 9.0944996
-36.002781 -26.106924 0.39167836 10.109
-36.225677 -25.512192 0.36306819 10.1095
-36.209309 -25.019117 0.36261007 10
-36.099548 -24.65373 0.34847668 10.1105
-36.39119 -24.306076 0.323421 10
-36.284767 -23.681881 0.33484265 10.0735
-36.348137 -23.354103 0.38520104 10.139
-36.224243 -17.543571 0.06785772 10.1405
-36.284027 -16.073095 0.19358014 10.788326
-36.062279 -15.958066 0.23845039 10.833333
-36.163719 -15.252975 0.26776057 10
-36.303886 -15.191576 0.38955748 11.133
-36.148117 -14.175611 0.12389771 11.102821
-36.121532 -13.757073 0.040871251 11.131625
-36.03141 -13.520381 0.11041725 11.132
-36.182037 -10.837651 0.27565953 11
-36.27887 -9.356452 0.29331985 12
-36.029591 -8.1507864 0.27309048 11
-36.08989 -25.856268 0.40163496 10.1085
-36.160839 -24.604597 0.50093347 10.142
-36.063629 -24.110994 0.41799498 10
-36.261944 -16.081512 0.6557433 11.619047
-36.031422 -15.962547 0.70902425 11.833333
-36.15337 -15.454423 0.49624354 11
-36.254425 -14.27963 0.46411979 12.133857
-36.168625 -10.825746 0.7413168 12
-36.299511 -9.4090548 0.65458512 13
-36.029865 -8.1751957 0.71661824 12
-36.185337 34.306751 0.68591887 8.0022507
-36.345142 34.425388 0.67702305 8
-36.204521 35.3209 0.7054745 8
-36.102837 36.224236 0.64252019 8.0802498
-36.021542 61.343773 0.68670744 9.0904999
-36.296108 -25.468918 1.1562351 11.1095
-36.177425 -24.986645 1.1449904 11
-36.004059 -24.401148 1.0813323 11.145
-36.328583 -23.674091 1.1298907 11.0735
-36.270153 -17.03429 1.1611749 12
-36.240913 -16.076731 1.0352384 12.5
-36.037151 -15.916605 1.0616119 12.4
-36.25267 -15.317719 0.93934441 11
-36.344418 -9.3352146 1.0010799 14
-36.025963 -8.1964893 1.1590341 13
-36.12487 60.718632 0.88771719 8.0489998
-36.187653 60.915138 0.8638745 8.0745001
-36.220657 61.396744 0.85981929 8.0465002
-36.252804 -27.218338 1.3848598 11.147
-36.17424 -26.798515 1.3918397 11.136
-36.065273 -26.067282 1.2037292 11.109
-36.142815 -25.820545 1.2444652 11.1085
-36.196606 -25.022478 1.2032971 11
-36.083115 -24.633118 1.2946628 11.046
-36.057251 -24.195063 1.2774659 11.06925
-36.241463 -23.890244 1.2321765 11.075
-36.353264 -23.357285 1.2173843 11.139
-36.222561 -16.073881 1.4033225 12.916667
-36.043503 -15.962286 1.406001 13.2
-36.155476 -10.86595 1.2144831 13
-36.28809 -9.3226357 1.3643978 15.068125
-36.308865 -27.142891 1.8778507 12.136499
-36.171177 -25.80118 1.8275727 12.139
-36.352543 -24.349836 1.8133327 12.143
-36.195114 -17.009981 1.7599001 13
-36.271523 -16.079718 1.7508566 13.636364
-36.079884 -15.91442 1.8007767 13.538462
-36.171127 -15.306428 1.6477193 12
-36.141773 -10.844517 1.6858115 14
-36.024662 -8.1954794 1.6073617 14
-36.076519 -24.216431 2.1621585 12.0561
-36.282356 -23.763769 2.0319867 12.0995
-36.366726 -23.445026 2.0674183 12.139
-36.22818 -17.046093 2.3801024 14
-36.284008 -16.051407 2.1606412 14.466666
-36.133366 -15.903943 2.1620421 14.619047
-36.181168 -15.315187 2.3420913 13
-36.122635 -10.854429 2.177088 15
-36.001183 -8.1788797 2.0621591 15
-36.227512 -25.523178 2.793504 13.1095
-36.271164 -25.084126 2.750628 13
-36.16465 -24.251316 2.6580508 13.145
-36.29903 -23.82069 2.5476401 13.14375
-36.232765 -16.096476 2.6106222 14.625
-36.123604 -15.851057 2.5276208 14.036375
-36.063782 -25.981049 2.9902048 13.1085
-36.25288 -25.105232 2.8874087 13
-36.048843 -24.186733 3.0198698 13
-36.27462 -17.073622 3.0192745 15
-36.220375 -16.116266 3.0249553 14.788563
-36.157928 -15.327786 3.0547564 14
-36.143822 52.412224 2.9448209 9.0555
-36.330612 -25.092628 3.5588796 14
-36.226604 -23.978689 3.3533509 14.1435
-36.177696 -16.110731 3.4540663 15
-36.258369 -15.927453 3.2680583 14
-36.099056 68.092026 3.4891272 9.0895004
-36.071121 -25.979126 3.8683887 14.1085
-36.254299 -25.509481 3.6151488 14.1095
-36.208839 -25.072342 3.7468965 14.027375
-36.295063 -16.19578 3.8897693 15.1575
-36.275784 -15.40195 3.7394261 15
-36.066128 -24.997168 4.2904301 14.142
-36.351059 -24.235746 4.2928724 15.037
-36.374687 -16.016636 4.0185428 15
-36.08366 -15.879391 4.0813971 15
-36.098572 -25.962521 4.7660007 15.1085
-36.267654 -25.505079 4.4630084 15.1095
-36.238197 -25.091261 4.5559335 15.01825
-36.090401 58.573475 4.785459 11.0905
-36.137848 72.058487 4.9483185 9.0480003
-36.344456 81.527679 5.8947139 9.0144997
-36.276573 81.708435 5.8932028 9.0319996
-36.292931 82.006424 5.9054003 9.0325003
-36.343563 84.590096 6.1370344 9.0279999
-36.19212 83.441887 8.8554411 10.048
-35.72002 -46.001297 -2.8019469 7
-35.673328 -17.153765 -2.4184699 6
-35.605255 -25.991125 -2.2441034 7
-35.681812 -25.527145 -2.2248328 7
-35.953213 -24.787762 -2.1894224 7
-35.817066 -18.194073 -2.0268998 6
-35.859211 -14.94714 -2.2149119 5
-35.722782 -13.387701 -2.0043344 4
-35.761032 -12.895421 -2.274076 5
-35.808281 -12.500087 -2.3010166 4
-35.765202 -10.562428 -2.3199811 3
-35.894749 -9.7026882 -2.3004153 5
-35.79702 -9.0895319 -2.3035967 2
-35.716431 -8.4103231 -2.2719293 2
-35.836288 -8.1053057 -2.2922871 1.2
-35.771469 -7.340158 -2.1869395 2.625
-35.854279 -6.959765 -2.1787772 2.25
-35.785522 -6.4962177 -2.2222359 4
-35.822071 -6.1904192 -2.0175085 3.3333333
-35.838146 -5.7634873 -2.0551414 3.5
-35.79657 -5.411911 -2.0496233 2.909091
-35.772976 -4.9886093 -2.0625801 2.2
-35.773285 -4.5933995 -2.0746253 1.6875
-35.844959 -4.2044511 -2.095804 1.7058823
-35.829636 -3.7839222 -2.1040418 1.7272727
-35.866371 -3.4518857 -2.1052151 1.6875
-35.824776 -3.0041044 -2.1297228 1.6363636
-35.850014 -2.5658581 -2.0847397 1.5
-35.789173 -2.1889768 -2.1263039 0.8888889
-35.886768 -1.7595409 -2.0910261 0.5
-35.792946 -1.4286183 -2.1096539 1.6666666
-35.814102 -1.0790333 -2.0596411 2.5
-35.879539 -0.70400041 -2.0612915 3
-35.7607 -0.1387057 -2.0259988 2
-35.801174 0.19126141 -2.0784118 2.6666667
-35.781513 0.56572908 -2.171855 1.75
-35.751492 0.99383676 -2.1246793 2.3333333
-35.820366 1.4490205 -2.1380525 2.1666667
-35.833649 1.7688392 -2.0833318 2.25
-35.865417 2.1934316 -2.0449083 1.2
-35.79808 2.5684433 -2.0757823 1.4
-35.801147 2.9135094 -2.0690804 2.2857144
-35.799561 3.3927677 -2.0210371 1.8
-35.832432 3.807894 -2.0318837 2
-35.912418 4.3068142 -2.155386 2.3333333
-35.819481 4.6182113 -2.1681354 2.5
-35.80706 5.0388474 -2.1229486 2.7142856
-35.760674 5.4483423 -2.1163759 3.3
-35.74966 5.8019414 -2.1392162 2.625
-35.837578 6.1153941 -2.0626142 2.25
-35.866302 6.597826 -2.101156 2
-35.750999 6.8772273 -2.2276273 3
-35.788387 7.3459477 -2.1575522 3.5999999
-35.801868 7.8137026 -2.133786 4.5
-35.721214 8.2626581 -2.0623255 3
-35.600922 8.6111164 -2.2314103 4
-35.948631 9.5517645 -2.2201664 4
-35.957062 9.8597679 -2.103687 5
-35.71862 10.262042 -2.1120129 5
-35.648312 10.817365 -2.0044637 4
-35.866405 11.415456 -2.2183406 4
-35.708221 11.805988 -2.2004368 4
-35.799374 12.229934 -2.1647804 4
-35.80761 12.636653 -2.1979923 4
-35.603245 12.996309 -2.2017679 4
-35.808102 13.399216 -2.2291825 4
-35.888924 17.666948 -2.1577582 5
-35.984997 18.354401 -2.0763745 5
-35.764488 18.534508 -2.073921 5
-35.803375 20.700089 -2.1817172 5
-35.709415 23.973288 -2.1668615 4
-35.884422 -46.995693 -1.75893 7
-35.847832 -43.286133 -1.667848 7
-35.764153 -18.425747 -1.8931471 7
-35.915245 -18.179037 -1.7213085 6
-35.853603 -15.738465 -1.6965938 7
-35.729183 -15.463075 -1.8212419 6
-35.630764 -14.626158 -1.9850551 7
-35.981411 -13.928725 -1.6751565 7
-35.766548 -13.241698 -1.6899743 7
-35.842251 -12.169047 -1.6967335 6.6666665
-35.879002 -11.726665 -1.7707504 5.75
