# .PCD v0.7 - Point Cloud Data file format
VERSION 0.7
FIELDS x y z intensity
SIZE 4 4 4 4
TYPE F F F F
COUNT 1 1 1 1
WIDTH 553
HEIGHT 1
VIEWPOINT 0 0 0 1 0 0 0
POINTS 553
DATA ascii
-4.4394922 2.5686274 0.17859444 8.5
-4.4411669 2.5955472 0.53758198 10.5
-4.446485 2.5773549 0.99173987 12.5
-4.4548783 2.5801404 1.3683634 14
-4.1524858 2.6446552 -0.48084703 4.6666665
-4.0578928 1.5883077 -0.12368817 6.6666665
-4.2595549 2.6289482 -0.18061039 6.4444447
-4.1846223 1.7555065 0.21764031 8.875
-4.3024411 2.1450746 0.16738695 8.5
-4.2311325 2.6165705 0.17315173 8.5
-4.1974039 1.8083107 0.58672404 11.18
-4.3552732 2.3092372 0.60153598 11
-4.2280145 2.6362386 0.58510363 10.864583
-4.0991054 1.481585 1.0764244 13.585249
-4.2047396 1.8138434 1.0881399 13.25
-4.3617563 2.304215 1.1275815 13
-4.2291927 2.6418352 1.1402797 13
-4.2244105 1.8804851 1.2285322 14
-4.3575892 2.3010025 1.3094871 14
-4.2311482 2.6402168 1.325866 14
-3.6824985 2.3970189 -1.0022552 1
-3.6444094 2.4545805 -1.0022552 1
-3.6410525 1.503866 -0.61487794 3
-3.6416888 2.5490725 -0.53779709 4
-3.7083087 2.8312652 -0.64156824 3.5333335
-3.6066241 -0.076275744 -0.15424366 6.25
-3.6181471 1.4763117 -0.26843253 5.5
-3.9989033 2.7341654 -0.082074471 7
-3.7654672 2.8062892 -0.16122787 6.5
-3.6209779 -0.07020548 0.25203151 9.5
-3.7874005 2.7929652 0.16373605 8.5
-3.6092997 -0.0749183 0.75835484 12.5
-3.7978089 2.7958791 0.74123693 12
-3.7784486 2.8077195 0.5084275 10.6
-3.6126072 -0.092167959 0.95802444 14
-3.6550426 0.1671585 0.91943389 13.669312
-3.6919219 0.61244273 0.96456981 13.975301
-3.9484415 0.98982185 1.0049113 13.673001
-3.7966149 2.799211 1.0779434 13
-3.7949684 2.8012354 1.2531101 14
-3.3101337 1.3835238 -0.94954395 0
-3.3128741 1.7474719 -0.92193663 0.5
-3.5109012 2.0878007 -0.93118215 1
-3.4437504 2.5716012 -0.92819679 1.3333334
-3.3761866 1.4928654 -0.64098656 2.4749999
-3.4300725 1.7875733 -0.62396204 2.8388889
-3.5471184 2.1107368 -0.62032044 3.1666667
-3.5766439 2.5024097 -0.72118223 2.75
-3.3854539 2.9319224 -0.55551839 3.9166665
-3.5392461 1.5037171 -0.15315473 6.3333335
-3.430176 1.7460181 -0.15246613 6.3499999
-3.5499833 2.0758774 -0.28310993 5.5
-3.3686686 2.9373014 -0.15306444 6.5
-3.5852435 -0.10145359 0.063570999 8
-3.3537962 0.15214464 0.23904349 9.5983925
-3.36604 0.67361969 0.28699037 9.9321146
-3.330302 0.83316642 0.20730522 9.3362503
-3.3206146 2.9454203 0.15444371 8.5
-3.2238057 -1.2973187 0.72968012 12.511
-3.2970488 -1.0488454 0.65050101 11.876938
-3.4434264 -0.61567408 0.74560469 12.583334
-3.5679452 -0.21435596 0.62373394 11.62575
-3.3245535 0.25008669 0.48162508 11.392166
-3.3289742 0.61397129 0.45035669 11.22475
-3.3197384 0.82928127 0.41597947 11.08625
-3.3513331 2.9451807 0.59656811 11.333333
-3.2210417 -1.3341808 0.92410749 14.0055
-3.3218026 -1.0216045 0.92151427 14.003875
-3.4438207 -0.62753648 0.92852992 14
-3.5499413 -0.30413535 0.91185492 13.7515
-3.5716391 0.22179775 0.88253212 13.67825
-3.328485 2.9519906 1.1123339 13.583334
-3.5354817 2.8892138 1.2125368 14
-2.8639958 1.1604586 -0.81633854 0
-3.1981409 1.4824928 -0.93290401 0
-3.0613971 2.1994417 -0.99911821 0
-2.8745606 2.4192576 -0.99480724 0
-2.8584523 1.0974772 -0.61677033 1.725
-2.9914939 3.0691185 -0.41913626 4.6666665
-2.8496754 -2.4753201 -0.063612036 7
-2.9000316 -2.2250769 -0.06153946 7
-2.9888666 -1.8858624 -0.059437446 7
-2.8597298 1.036887 -0.15103209 6.0500002
-2.9571331 3.072505 -0.13392681 6.583333
-2.938972 -2.1612792 0.20539571 9.1111107
-3.01895 -1.9172374 0.21817121 9.25
-3.0546949 0.30875888 0.21484378 9.6771259
-3.0269837 0.57988292 0.24265569 9.9246244
-2.960746 0.96279681 0.23744516 9.7089996
-3.0735719 3.024724 0.1501843 8.5
-2.8133852 -2.5655582 0.61556214 11.75
-2.9613619 -2.0988216 0.65651953 12
-3.0603726 -1.805993 0.64852071 12.055556
-3.1695833 -1.4630029 0.70206678 12.2565
-3.0984795 0.10544853 0.59471643 12.179
-3.0272949 0.49566856 0.61538994 12.425375
-2.9435756 0.96096051 0.55773395 11.8009
-2.9856536 3.062161 0.55903995 11.25
-2.8271151 -2.5246062 1.005506 14
-2.9361527 -2.2013173 0.97347265 14
-3.0762095 -1.779802 0.94365388 14
-3.1014521 0.95366538 0.85915577 14.1715
-3.1188409 3.0243335 1.0456582 13.333333
-2.6048086 -3.07037 -0.94265485 0.83333331
-2.5257986 -3.3083553 -0.58317447 3.4583335
-2.6379077 -3.1064482 -0.58705127 3.3499999
-2.4914048 -3.3667898 -0.17285028 6.2916665
-2.6635952 -3.0017104 -0.23169293 5.8200002
-2.7613149 -2.7034745 -0.065150619 7
-2.5616388 3.197619 -0.15446495 6.4000001
-2.5307796 3.219506 -0.35252959 5
-2.4305563 -3.6733024 0.26793489 9.25
-2.4880304 -3.4244437 0.091300458 8.1202774
-2.6737216 -2.9653409 0.1388348 8.5
-2.7981825 -2.5836074 0.13250406 8.5
-2.7992754 3.1158552 0.14574671 8.5
-2.5133467 3.2078326 0.14175139 8.5
-2.4286437 -3.7217133 0.58185446 11.25
-2.5343158 -3.4004323 0.55466962 11.25
-2.6727347 -2.9928093 0.52514058 11.25
-2.7945998 -1.3570687 0.70744932 13.013
-2.5792942 3.1938908 0.64458561 12
-2.5678148 3.2002883 0.41397125 10.4
-2.4352899 -3.6983802 1.0938553 13.5
-2.5028706 -3.4960158 1.0618789 13.5
-2.676333 -2.9697912 0.98739052 13.5
-2.7978377 3.1264627 1.0359284 13.5
-2.5489187 3.2106099 1.0270736 13.6
-2.3273878 2.0481772 -0.81892431 0
-2.2074249 2.0751314 -0.64343786 1.4166666
-2.2503729 2.5895092 -0.41381639 4
-2.0111616 3.3969495 -0.61674416 3
-2.3790593 -3.62233 -0.073254056 7
-2.3950408 -3.5667222 -0.072606154 7
-2.2373056 3.3083265 -0.18332614 6.1666665
-2.3684564 -3.6202717 0.076616444 8.0142498
-2.3887136 -3.5829489 0.07626389 8
-2.1995823 3.312767 0.10463528 8.25
-2.2990048 -4.0898657 0.593023 11.1325
-2.371027 -3.8835399 0.61938733 11.4058
-2.1999104 3.3200388 0.5205031 11.25
-2.1394484 -4.5586619 1.0606799 12.5
-2.2570362 -4.2331119 1.0386081 12.6728
-2.3779926 -3.862215 1.0827956 13.287444
-2.1536937 3.3356259 0.99860471 13.625
-2.1389077 -4.5657024 1.3402565 14
-2.2606332 -4.2077065 1.2694106 14.007626
-2.3610604 -3.9154871 1.2145694 14
-1.7977654 2.713748 -0.86030775 0
-1.8737482 3.1873932 -0.978899 0
-1.8472682 3.3474445 -0.94125587 0.5
-1.7958589 2.6359439 -0.64492786 1.7166667
-1.8905236 2.9721775 -0.55092418 3
-1.7845991 3.4409289 -0.59788275 3.0612245
-1.7820268 3.4458265 -0.14615762 6.4000001
-1.7841772 3.447073 0.14850529 8.6000004
-1.8432187 3.4281309 0.63454115 11.833333
-1.6998628 3.4891517 1.0292996 14
-1.4596189 2.9960265 -0.88099933 0
-1.5206103 3.4356866 -0.5860306 3
-1.412637 3.5094364 -0.22096884 5.8000002
-1.2965175 3.548125 0.13151011 8.5
-1.2607789 -2.8701079 0.65802127 12.508312
-1.4629654 3.5547864 0.51407349 11.166667
-1.2662799 3.6192982 0.56891233 11.5
-1.2804875 -2.8883431 0.836541 14.016624
-1.4264779 3.57059 1.0196936 14
-1.2654517 3.6270916 1.0185553 14
-1.0617293 3.5169842 -0.83616585 1
-1.0825913 3.5066421 -0.68176746 2.1666667
-1.1128265 2.8998437 -0.33845016 4.3333335
-1.1577592 3.5494392 -0.12733361 6.5
-0.90039241 2.9438229 0.054584671 8.1435003
-1.143315 3.5658205 0.098477356 8.25
-1.0331388 3.7029181 0.3345978 10
-0.82796037 -4.2695689 0.60651207 11.5395
-1.0341102 -2.8074706 0.65538085 12.75
-0.95384294 -2.7862878 0.68902165 13.178666
-1.0716928 3.6773529 0.56769818 11.625
-1.0520904 3.6866505 0.96921021 13.666667
-0.61168092 -4.6477728 0.65432996 11.541249
-0.60636616 -4.0523839 0.93583447 13.04075
-0.28204349 -4.6449852 0.64929211 11.54325
-0.28619134 -4.0710106 0.9317233 13.042999
1.1824567 -2.8011882 -0.47298715 3
0.99030352 -2.8638661 -0.24895795 5.104167
0.91903114 -2.8632572 0.053353094 8
1.0933404 4.6682982 0.2485479 9
1.112227 4.6636691 0.61850482 11.2256
1.1219159 4.6544199 1.0937606 13.042666
1.0930973 4.3876643 1.2003572 14.128
1.1089901 4.4228282 1.2106966 14.128
1.4350424 3.5196359 -1.006441 0
1.2231811 -2.7712433 -0.44440925 3.25
1.5391737 4.4939938 -0.45113829 4.75
1.2297819 -2.7784748 -0.20839511 5.5
1.5193832 4.4634709 -0.16153978 6.5
1.4138703 -4.7362466 0.20013767 8.6845007
1.339155 -3.4996281 0.06639754 8.0555
1.4854648 4.5434461 0.18741606 8.625
1.3820713 -4.7723503 0.62811631 11.125
1.4523562 4.6289029 0.6227833 11.185185
1.3693036 -4.7610455 1.1324478 13
1.4545257 4.6134801 1.1054465 13
1.4855886 -4.5706592 1.2770407 14.054
1.4212197 4.4272881 1.2348218 14.042251
1.8163328 -3.9821672 -0.84085971 2
1.9661796 -3.269151 -1.0103201 0
1.9445871 2.5756924 -0.85254353 0
1.641109 3.3490903 -0.98704201 0
1.7898226 3.6814222 -0.93267173 1
1.6254222 4.0928497 -1.004493 1
1.9240991 -3.9306855 -0.60770863 3.5
1.8524519 -2.8509641 -0.77331865 1
1.8046921 -2.4732878 -0.59076965 1.9583334
1.8686153 -2.3383708 -0.65234244 1.25
1.7577153 4.0357847 -0.53232956 4
1.8294933 4.5863094 -0.52618718 4.416667
1.8094356 -2.4375315 -0.36547366 4
1.8190663 4.5482965 -0.1679365 6.5
1.8001429 -4.6093597 0.1555571 8.3999996
1.9398727 4.1617637 0.081263661 8.1225004
1.8553853 4.5445395 0.16264546 8.4747
1.7950634 -4.6506953 0.56565416 10.75
1.8266009 4.5512438 0.61506176 11.097221
1.7991345 -4.6594529 1.1430129 13
1.8420547 4.5606341 1.123976 13.030875
1.7946855 -4.6168914 1.3169287 14
1.8742347 4.5718808 1.3128209 14.030875
2.1905444 -3.7916312 -0.96627527 1.2
2.1602445 -3.467494 -1.082742 0
2.2246175 -3.8211305 -0.62135071 3.4523809
2.0191767 -2.300221 -0.47610441 3
2.3581913 -1.9452304 -0.58468157 2
2.2505436 2.2971127 -0.75232852 0.80000001
2.2437017 2.4862924 -0.76172203 1
2.260874 2.8631046 -0.76348203 1.5
2.0230329 3.4333532 -0.76467282 2
2.1858075 4.0635567 -0.64047867 3.5
2.3160617 4.7556968 -0.45647624 5
2.2002449 -4.4577231 -0.20859522 6.2777781
2.3269835 -3.7945075 -0.38355732 5
2.0261219 -2.4988477 -0.27606022 5
2.1254494 -2.3408098 -0.32491356 4.5
2.3719828 2.7409215 -0.18625674 6
2.3284769 2.9874799 -0.13524488 6.4444447
2.2573924 3.3189554 -0.067719311 7
2.0655377 3.6499312 -0.070786349 7
2.2341406 -4.4211493 0.22839184 8.833334
2.2053852 -4.3626499 0.17007735 8.5
2.3745005 3.0436723 0.10210653 8.2791252
2.2337675 3.2832644 0.14913163 8.6153183
2.1003525 3.8654242 0.11707099 8.3707504
2.3487263 4.2468781 0.25158206 9.1204996
2.1840169 4.5661802 0.26249921 9.0608749
2.2141979 -4.4426293 0.67847735 11.416667
2.311317 -4.3399248 0.53331721 10.630777
2.2193727 3.2921214 0.62292582 12.118
2.0622106 3.7993748 0.67878938 12.120749
2.218616 4.6855688 0.57116574 10.707333
2.2267816 -4.4659905 1.1408591 13
2.3505604 2.7991083 0.83304745 13.115
2.2986388 3.1058269 0.88126558 13.116751
2.3427358 3.748137 0.90287971 12.452332
2.304219 4.2384691 1.1021724 13.12075
2.1504128 4.6873693 0.9946686 12.5
2.2357335 -4.4838181 1.3316458 14
2.2407646 4.7027912 1.3351965 13.811
2.6745951 -4.1997185 -1.0018753 1.75
2.6466002 1.8797901 -0.85771561 0
2.4464357 2.1344132 -0.85771585 0
2.7778115 -4.292841 -0.72788084 3.4000001
2.6234934 -2.1652021 -0.52989513 3
2.6730506 1.3381748 -0.63899654 1.375
2.591444 1.8885124 -0.71752936 1.1
2.5796425 2.1260526 -0.5412553 2.8166666
2.4639776 2.5586274 -0.53276956 3.1666667
2.4590185 2.9569397 -0.59928918 3
2.4794111 3.4800136 -0.5165531 4
2.4333169 3.6028111 -0.52565438 4
2.5321598 4.0436382 -0.74584073 3
2.4650588 4.4441924 -0.61545312 4
2.4559271 4.8083944 -0.46602499 5
2.5205297 -4.3667827 -0.12919328 6.75
2.6210525 1.5739273 -0.10419874 6.5
2.6355708 1.7482339 -0.19436146 5.6999998
2.5889773 2.1904559 -0.081922874 6.7833328
2.4454219 2.5995448 -0.15673718 6.2083335
2.4072642 2.9261422 -0.063788429 7
2.6743972 -4.2318702 0.22513407 8.8000002
2.7920463 1.3046463 0.15939173 9.1025
2.7016404 1.7282829 0.056851353 8.0352507
2.5967565 2.2689171 0.16240034 8.8637295
2.4822557 2.5536253 0.22550666 9.317709
2.480432 2.9831922 0.1949899 8.9731255
2.6047897 3.3948019 0.37273633 10.038667
2.6579015 -4.2085385 0.57857424 10.833333
2.7142017 1.7974418 0.74165761 13.10675
2.604656 2.0724211 0.75791705 13.10925
2.5289996 2.5670154 0.57853836 11.653063
2.6948178 3.0204797 0.5331642 11.30725
2.6225147 3.426676 0.58839834 11.430905
2.5012648 3.9508593 0.46099809 10.452167
2.5149209 4.1716561 0.42455178 10.1195
2.5954013 4.7286739 0.61128432 10.870625
2.655709 4.832551 0.55713433 10.520599
2.6740746 -4.3601394 1.1696285 13.020333
2.7449803 1.5550978 0.83460742 14.10475
2.6553874 1.7918817 0.84808534 14.107
2.6747196 2.2902081 0.87658852 13.681715
2.5156627 2.549201 0.89646077 13.648499
2.5522578 2.9904318 0.89696485 13.11475
2.4148722 3.5676074 0.98330897 13.118
2.47528 3.969909 1.0685319 13.119
2.4396143 4.2299061 1.1156288 13.12
2.5376441 -4.4125614 1.3529925 14
2.6558385 -4.3364725 1.351571 14.06075
2.6095529 4.7447038 1.3900009 13.870625
2.6232872 4.8255739 1.4601334 14.12075
2.8298969 -4.2728372 -0.8019706 3
3.1922822 -0.53184766 -0.85512841 0
3.153914 0.39662844 -0.83960944 0
3.1188896 0.56211191 -0.83702302 0
2.9456003 -4.2224874 -0.44450316 5
3.1590445 0.39685547 -0.66621447 1.5
3.1106226 0.58212143 -0.54975778 2.5
2.8910701 0.98701882 -0.43925571 3.3333333
3.0840573 1.3631854 -0.40652868 4
3.1068106 1.6608375 -0.6117869 2.5
2.8908839 2.1559615 -0.54225314 3.1666667
2.9671781 2.9135528 -0.64917141 3
3.1580811 4.0431557 -0.44258586 5
3.0059834 4.4491491 -0.46342 5
2.997993 -4.2041545 -0.17737146 6.5
3.1858478 0.26618129 -0.10853551 6.5
3.089617 0.57711339 -0.14217961 6.1750002
3.0005317 1.0372214 -0.071157031 6.8333335
2.934289 1.2937696 -0.18529978 5.8333335
2.9105418 2.126014 -0.30962497 5
2.9875317 4.5512543 -0.2813203 6
2.8168435 4.8301015 -0.28901434 6
3.0382853 -4.2095618 0.16297626 8.3999996
3.0878818 0.61833996 0.24648829 9.7620001
2.9799409 0.99774432 0.14732957 8.8723059
2.9308856 1.2313737 0.056352217 8.0338335
2.9856703 1.6516879 0.060465232 8.1044998
3.0247643 2.3106422 0.19813488 9.1087141
2.9042759 2.4431832 0.33023632 10.11
3.0139375 -4.2411971 0.57450497 10.666667
3.1952064 0.36662406 0.73212671 13.09325
3.1093092 0.58357793 0.66389394 12.519117
3.0398564 0.98018891 0.71139079 12.956072
2.9144621 1.3901249 0.73605108 13.102749
3.0065305 2.3473322 0.46385464 11.109
2.9762809 2.5193751 0.50992173 11.360126
3.056313 2.9694922 0.66918045 12.1121
2.8833427 3.3155873 0.59667754 11.514499
2.8991272 4.2217727 0.62408775 11.11775
3.013658 -4.2519522 1.0986495 12.75
3.1929171 0.39743811 0.85140932 14.0935
3.124449 0.58825165 0.84150076 14.047792
3.0578456 0.98420358 0.85054761 14.098918
2.9882441 1.3822088 0.87208766 14.1024
3.1783633 1.619943 0.81286418 13.1035
2.8893948 2.3433125 0.98581946 14.1095
2.9788327 -4.2631092 1.382934 14
3.1033688 4.2734036 1.4036987 14.117
2.9611688 4.5584517 1.4450556 14.1185
2.9050868 4.8265648 1.2883179 13.1195
3.3657718 -0.83652788 -0.91720426 0
3.5892763 -0.6330002 -0.82942665 1
3.3451824 -0.19693582 -0.88616627 0
3.3273406 -0.1296861 -0.64795685 1.9166666
3.3333418 0.63347858 -0.58996779 2.5
3.3705158 0.91219616 -0.48148617 3.5
3.3020489 1.2702974 -0.42675334 4
3.5357351 1.8074229 -0.61954647 3
3.3722825 -4.0509944 -0.1822349 6.5
3.5904772 -3.8454452 -0.27180004 6
3.5737562 -0.93901992 -0.14703463 6.3333335
3.4525437 -0.61168265 -0.099537224 6.6666665
3.3981774 3.0221496 -0.39191127 5
3.5003729 -4.2265248 0.14385524 8.25
3.5961123 -0.93215185 0.065812841 8
3.4403811 -0.66025954 0.062081609 8.0211248
3.4391689 -0.11232344 0.095028251 8.3747854
3.312731 0.23819575 0.099816799 8.3919611
3.4240682 0.514934 0.1437466 8.7609167
3.3834188 1.1453116 0.26979861 9.7659998
3.3182642 1.4235963 0.16420163 8.9016008
3.3041792 1.6800649 0.13012081 8.6035004
3.3970525 2.1811357 0.17605588 8.8563747
3.4733725 2.4759398 0.30350566 9.5916395
3.4109545 -4.3057837 0.62289357 10.75
3.5268674 -0.69900852 0.72318798 12.25
3.4149287 -0.26944676 0.7803452 13.087749
3.2491317 0.14148434 0.74072379 13.09125
3.5888097 0.9281581 0.45067164 11.09725
3.5863707 1.9851265 0.64324164 12.1045
3.5462165 2.3359127 0.66668093 12.035333
3.4774392 2.5180526 0.59783089 11.5218
3.2655685 2.8378386 0.67918146 12.1105
3.5092318 -0.81925976 0.95480245 14
3.5125239 -0.65001982 0.88981426 13.5952
3.5284238 -0.12520364 0.84713912 13.422334
3.2690113 0.17146124 0.86691839 14.0915
3.2829993 1.5335095 0.95997179 14.1025
3.3280241 1.6186645 0.98065042 14.103
3.4765573 -4.3437066 1.3763063 13.515938
3.3837249 3.3801775 1.2701502 14.1125
3.2509296 3.815794 1.3321857 14.11475
3.7346497 -0.80721116 -0.80060047 1.5
3.677516 -0.49170548 -0.80065161 1.3333334
3.9402299 -3.7077618 -0.59264189 4.3333335
3.731782 -1.4220251 -0.57135415 3.375
3.8586073 -1.0149777 -0.76562285 2
3.9258564 -0.43354496 -0.6164276 3
3.8898673 -3.7517486 -0.25802025 6.1111112
3.7227967 -1.4096581 -0.23553424 5.7777781
3.6174631 -0.92218536 -0.062836625 7
3.8603127 1.7711866 -0.36597675 5
3.7938316 2.1447616 -0.37530872 5
3.7633605 -4.1347466 0.20708208 8.5666666
3.7218351 -1.360526 0.1891083 8.875
3.6593246 -1.0357095 0.18326075 8.8964596
3.7127421 -0.62866396 0.15925696 8.7995005
3.7271638 -0.2756246 0.16256353 8.8378744
3.7137477 0.20671968 0.32377493 10.0916
3.6393781 0.50650948 0.19023862 9.0939999
3.9396956 1.7106129 0.37425175 10.10175
3.7817509 2.1491327 0.27168968 9.3210497
3.6809239 2.4649653 0.2295634 9
3.7887106 -4.1606202 0.62181813 10.666666
3.7206664 -1.3984158 0.55820829 11.549383
3.6890645 -1.0162742 0.71289581 12.027291
3.8555429 -0.5885632 0.61198962 12.085667
3.9407089 -0.17001128 0.61902148 12.088751
3.7779524 0.2639859 0.50710636 11.425334
3.8198009 0.53873867 0.56119937 11.760666
3.8312452 1.0141584 0.56902951 11.6974
3.8557925 1.404855 0.64417958 12.1
3.824707 1.7836989 0.58685142 11.602498
3.7671015 2.182225 0.52150476 10.962007
3.6779447 2.4551687 0.50001395 10.75
3.7085025 -4.168386 1.0098119 12
3.7526066 -1.4075763 0.99258959 13.54515
3.6688943 -0.99786717 0.91388994 13.347028
3.750107 -0.59414697 1.0064992 14.0855
3.704025 -0.16385853 0.94866359 13.83875
3.8933778 1.8551049 0.98443222 13.10275
3.8312886 -4.2238736 1.4110672 13.511083
4.1168108 -1.7358941 -1.0190785 1
4.228868 -3.7509518 -0.58566332 4.5
4.1379161 -1.7144135 -0.62261117 3.5
4.1297336 -1.3473316 -0.63416678 3.3
4.0396843 -0.28212842 -0.63201916 3
4.2683725 0.73539174 -0.52383184 4
4.1247683 1.000463 -0.55042589 3.75
4.2713151 -3.773874 -0.1848115 6.5555553
4.0343404 1.3916246 -0.36749563 5
4.2829323 -4.071228 0.34888768 9.1999998
4.2221804 -3.9458547 0.10221908 8
4.1918092 -1.2078285 0.38001579 10.082
4.2508993 -0.98329788 0.22611068 9.0834999
4.310154 0.60495669 0.37914264 10.094
4.2216306 -4.103673 0.58286518 10.333334
4.0199533 -0.56240177 0.63699162 12.086
4.1959386 -0.24373536 0.65991032 12.088333
4.1128316 0.16508351 0.64636755 12.091125
4.1784697 0.55180293 0.58529162 11.59375
4.0293932 0.88414896 0.59889686 11.762834
4.0433097 1.3926239 0.52064747 11.099501
4.2560492 -4.067709 0.96164751 12.166667
4.0183034 -0.52749801 1.0749972 14.08625
4.1208863 -4.1022029 1.3844026 13.25
4.3654523 -3.9775586 1.5711751 14
4.5517387 -1.9629318 -0.95323145 2
4.6757555 -1.0859826 -0.92275673 2
4.5127492 -3.7033215 -0.55435067 4.75
4.6246085 -2.1449335 -0.59232175 4.1428571
4.539659 -1.2219141 -0.7349239 3
4.7344198 -1.1791651 -0.76298887 3
4.6404843 -0.59818435 -0.62053514 3.6666667
4.5511837 -0.19688079 -0.55113512 4
4.6304798 -3.642184 -0.10014083 7
4.6083775 -2.1514649 -0.17440264 6.5
4.5836453 -1.9542824 -0.14250641 6.666667
4.411191 -4.02314 0.30981055 9
4.5173068 -3.8235774 0.14593974 8.2139492
4.7490864 -2.2721248 0.18343244 8.5
4.5502195 -0.11900409 0.39660892 10.089251
4.5013895 -4.0260892 0.63182676 10.5
4.6405821 -3.8047912 0.58653444 10.3
4.790504 -2.445703 0.65573114 11.0765
4.7596745 -2.2844372 0.55176371 10.5154
4.670104 -0.97652096 0.49699795 10.584083
4.5987749 -0.61176008 0.49219212 10.641778
4.5695167 -0.22489963 0.5039677 10.75525
4.4650073 0.07701198 0.54377031 11.0905
4.6680951 -4.0033054 1.1855924 13
4.6444297 -3.7861319 1.0222609 12.375
4.6476221 -3.7003117 1.5803299 14
4.6981792 -3.7646945 1.6018128 14.03525
4.8271465 -3.6067173 -0.52071106 5
4.8603363 -3.577606 -0.62631726 4.5
4.9939461 -3.0584233 -0.40439397 5.5
4.8585863 -2.6573441 -0.47820401 5
4.8340025 -1.06629 -0.57595372 4.1388888
4.8050275 -3.6058922 -0.10214195 7
4.9235144 -3.5750887 -0.10347465 7
5.0375733 -3.0505502 -0.10009713 7
4.9439707 -2.6745105 -0.21836624 6.375
5.062305 -3.5007617 0.273671 8.7777777
5.0295672 -3.0181785 0.20360059 8.5149498
4.9202003 -2.6454368 0.19522721 8.5254164
4.9897041 -2.1236973 0.18270048 8.4823666
5.0723319 -1.8100324 0.23374118 8.75
4.8535786 -3.6141491 0.5799281 10.25
4.9316893 -3.5824785 0.74365664 11
5.0386004 -3.0587299 0.49131945 9.913723
4.8704591 -2.6624408 0.59930599 10.6152
5.0510058 -2.1379719 0.58753031 10.582643
5.0524268 -1.7536747 0.58973581 10.680167
4.9103069 -1.3556863 0.58552301 10.8823
4.8524547 -1.0739483 0.43328774 10.08375
4.8608928 -3.6201653 1.0611861 12.5
4.9931908 -3.5743659 1.1118579 12.666667
5.1892505 -2.1816273 0.88544989 12.039249
5.1803703 -2.8688002 1.575161 14.0755
5.0945125 -2.5968337 1.5208797 14.0765
5.1142535 -2.1522837 1.3713481 13.526
5.073596 -1.8452817 1.2344956 13.08
4.8974266 -3.6205754 1.6203952 14
5.0397315 -3.5750983 1.6441432 14
5.3029962 -3.4278767 -0.44708061 5.4499998
5.2531667 -3.4362023 -0.10681405 7
5.2544603 -2.634285 -0.099895269 7
5.2929029 -3.4073884 0.11131006 8
5.3409548 -2.8371177 0.10694452 8.0760002
5.2647157 -2.6275966 0.19261158 8.469944
5.3471899 -3.4128313 0.65868008 10.476191
5.2931905 -3.0643926 0.64098173 10.53775
5.3218689 -2.7183204 0.52149123 10.0765
5.3394132 -3.3553624 1.0364569 12.2
5.3656487 -3.1273038 1.0321485 12.268959
5.3380675 -2.6281748 1.0210071 12.4769
5.2517743 -2.335706 0.90420139 12.078
5.3644199 -3.3883269 1.2236309 13.012334
5.4952607 -3.1145051 1.2179434 13.03775
5.2891045 -2.4693887 1.3354177 13.0775
5.2320366 -2.2755365 1.3051412 13.07825
5.4013553 -3.3666928 1.6939552 14.012334
5.5183086 -3.1933596 1.696648 14
