# .PCD v0.7 - Point Cloud Data file format
VERSION 0.7
FIELDS x y z intensity
SIZE 4 4 4 4
TYPE F F F F
COUNT 1 1 1 1
WIDTH 554
HEIGHT 1
VIEWPOINT 0 0 0 1 0 0 0
POINTS 554
DATA ascii
-4.4512005 2.5784788 0.17903063 8.5
-4.4525571 2.595845 0.53862709 10.5
-4.4537024 2.5845907 0.99364251 12.5
-4.4247251 2.5936656 1.3631938 14
-4.1291718 2.6666112 -0.48029646 4.6666665
-4.0684009 1.5883349 -0.12397245 6.6666665
-4.2272167 2.6600254 -0.15179324 6.6111112
-4.2042913 1.7864755 0.23143089 8.958333
-4.3410382 2.233006 0.19715631 8.666667
-4.1868367 2.6464396 0.1725859 8.5
-4.1982069 1.7880991 0.59093904 11.208333
-4.3507977 2.2772214 0.59095919 10.95
-4.2104659 2.6539783 0.60613251 10.991667
-4.0060863 1.1560763 0.95190293 13.172
-4.1023507 1.4960976 1.0783503 13.585249
-4.1829109 1.7412078 1.0766861 13.25
-4.3155947 2.1531129 1.1026001 13
-4.2315307 2.6474559 1.1414343 13
-4.2038827 1.8398678 1.2188271 14
-4.3272252 2.2140937 1.2916627 14
-4.229753 2.6247907 1.3234693 14
-3.6846676 2.3938048 -1.0022552 1
-3.6308405 2.4573867 -1.0000108 1
-3.6647282 2.550868 -0.54022413 4
-3.7415247 2.8265023 -0.62542909 3.6500001
-3.6224051 -0.080308884 -0.12358278 6.5
-3.6730778 1.4863715 -0.2039993 6
-3.7697296 2.8223431 -0.16126347 6.5
-3.6287031 -0.081066661 0.25646764 9.5
-3.7482533 2.8167777 0.1470322 8.3999996
-3.611892 -0.089621715 0.75897098 12.5
-3.6788037 0.070375651 0.70698971 12.1795
-3.7861409 2.8107367 0.62520796 11.3
-3.6090295 -0.093151569 0.95705509 14
-3.6445053 0.18168645 0.9227109 13.84525
-3.6945295 0.60470486 0.95779598 13.925375
-3.9391937 0.96901292 1.0099397 13.728666
-3.8005619 2.8049066 1.0794137 13
-3.7811782 2.7994478 1.2498456 14
-3.2380757 1.4324979 -0.9370904 0
-3.3783941 1.8380966 -0.9212935 0.66666669
-3.4171603 2.1091635 -0.96195972 0.66666669
-3.437135 2.5589287 -0.92560631 1.3333334
-3.3587892 1.5150292 -0.5932982 2.8142858
-3.4543805 1.8071383 -0.61899757 2.904762
-3.5642529 2.1336594 -0.62465096 3.1666667
-3.4656529 2.5280519 -0.74621457 2.5
-3.4363956 2.9203179 -0.60584682 3.625
-3.5331736 1.4969962 -0.064659849 7
-3.4687743 1.7600042 -0.18018797 6.1547618
-3.5641201 2.0715728 -0.2838048 5.5
-3.3399808 2.9563332 -0.17809674 6.333333
-3.5954227 -0.097972326 0.06374725 8
-3.3683541 0.14053874 0.24809183 9.6697502
-3.3950374 0.69657654 0.27406049 9.8124666
-3.2819252 0.84752405 0.20511918 9.3365002
-3.396764 2.9336433 0.15612283 8.5
-3.3137546 -1.0003569 0.72721159 12.5025
-3.4501014 -0.61103219 0.75263005 12.625
-3.5814195 -0.20409706 0.7322877 12.333333
-3.3316023 0.23245686 0.4823958 11.392166
-3.3817141 0.73169482 0.4791258 11.337125
-3.2438943 0.86699641 0.40806934 11
-3.4051197 2.9376817 0.58817464 11.25
-3.2264752 -1.3026524 0.92225564 14
-3.3255844 -0.99994218 0.92083216 14.00375
-3.4546065 -0.58248293 0.93015498 14
-3.5881205 -0.17104056 0.95220864 14
-3.5767093 0.22021644 0.8834824 13.67825
-3.3849688 2.9371166 1.1067542 13.5
-3.5249841 2.8873882 1.2100444 14
-2.8618424 1.1659625 -0.81633854 0
-3.1855314 1.5446993 -0.87132567 0.5
-3.0184832 2.2658224 -0.99998039 0
-2.8832991 2.42397 -0.99739373 0
-2.858763 1.0978091 -0.62186307 1.675
-3.19838 1.5457506 -0.68087417 2
-3.0146005 3.0747292 -0.43389124 4.583333
-2.8051922 -2.5446136 -0.063816629 7
-2.8868709 -2.2357347 -0.061468825 7
-2.8765225 1.039233 -0.15208302 6.0500002
-3.0036693 3.0794125 -0.21317689 6.0555553
-2.8106899 -2.5715749 0.11960775 8.3999996
-2.9476845 -2.1585963 0.21919763 9.2222223
-3.0190275 -1.9511319 0.29218206 9.833333
-2.8872445 -0.9075073 0.36760584 11.00875
-2.935853 -0.71979898 0.32526284 10.6069
-3.0748641 0.29220372 0.19862631 9.5106668
-3.0155373 0.52475452 0.21270593 9.6750832
-2.9489267 0.97132808 0.23203965 9.6428576
-3.0563345 3.0390949 0.12514426 8.333333
-2.8243825 -2.5541668 0.60217404 11.65
-2.9363601 -2.2005568 0.77130157 12.5
-3.0753992 -1.7956887 0.74845695 12.5
-3.0915453 -1.4222753 0.71929276 12.556499
-3.0983684 0.10869493 0.59471643 12.179
-3.0078876 0.53705537 0.56862062 12.00825
-2.8952003 0.94959825 0.55864954 11.973792
-3.0411739 3.0518715 0.54598546 11.133333
-2.8126452 -2.5575397 1.0087278 14
-2.931474 -2.1969755 0.97175568 14
-3.0216954 -1.9516906 0.95380586 14
-3.1293156 -1.5968306 0.93166369 14
-3.047049 3.0441532 1.0734926 13.555554
-2.6148186 -3.050992 -0.97138959 0.625
-2.5605314 -3.3440132 -0.57725245 3.5416665
-2.6485105 -3.0957575 -0.58088505 3.3916664
-2.4723756 -3.3919909 -0.13727576 6.5416665
-2.6838763 -2.9699121 -0.19293098 6.0999999
-2.5722461 3.2242637 -0.23632403 5.833333
-2.4593356 -3.4614723 0.11927284 8.3055
-2.6559756 -3.0328975 0.099483088 8.1999998
-2.7433209 -2.7847869 0.15868512 8.666667
-2.5879629 3.1943352 0.14303493 8.5
-2.4294322 -3.7266667 0.58241498 11.25
-2.5332119 -3.4189403 0.54412609 11.166666
-2.6807079 -2.9867785 0.52508092 11.25
-2.5883424 3.1971791 0.64587539 12
-2.5747728 3.2068989 0.44367787 10.6
-2.4467478 -3.6709347 1.0625933 13.333333
-2.5248587 -3.4333193 1.0266714 13.333333
-2.6562769 -3.0313644 0.99557531 13.5
-2.5751553 3.2024543 1.0296026 13.6
-2.3285336 2.0469656 -0.81892437 0
-2.1958787 2.0801637 -0.64219415 1.4166666
-2.2047253 2.6279531 -0.4140186 4
-2.0139976 3.4036553 -0.54703873 3.5
-2.2559991 3.320545 -0.24123091 5.75
-2.1671073 3.3375423 0.18512468 8.833333
-2.321301 -4.026484 0.64896411 11.5
-2.3702071 -3.8845723 0.59439588 11.257375
-2.239984 3.3160226 0.55770808 11.5
-2.1333196 -4.5571475 1.0605762 12.5
-2.2551479 -4.2490902 1.0352722 12.625
-2.3734977 -3.8877883 1.0965981 13.343166
-2.1566186 3.3353045 0.99885106 13.625
-2.1173534 -4.6119008 1.3489802 14
-2.257622 -4.214448 1.2710509 14
-2.3582947 -3.9115782 1.213277 14.0295
-1.7736592 2.5196848 -0.81375068 0
-1.8620045 3.0461459 -0.94485414 0
-1.8526086 3.3525162 -0.94286042 0.5
-1.789009 2.6094954 -0.66477698 1.5
-1.8809466 2.9817886 -0.57945663 2.7666667
-1.7819638 3.4620996 -0.6026119 3.0476191
-1.8023727 3.4547813 -0.13333328 6.5
-1.7386482 3.4739823 0.22657377 9.1777773
-1.840676 3.439882 0.62307334 11.827778
-1.6026834 3.5136154 1.0244677 14
-1.4581172 2.9968021 -0.88099933 0
-1.5140327 3.408854 -0.71515602 2
-1.4209992 3.5219605 -0.22211239 5.8000002
-1.3128911 3.559236 0.088800281 8.166667
-1.2611409 -2.8732114 0.65884024 12.5
-1.4142922 3.5789843 0.60499024 11.666667
-1.2753912 3.625447 0.57022768 11.5
-1.2985436 -2.8883779 0.83847952 14
-1.3590598 3.5848289 1.0164628 14
-1.2596307 3.6190047 1.0159706 14
-1.1266978 2.8629937 -0.3167035 4.5
-1.0381106 -2.8186278 0.28683081 10.25
-0.89782381 2.9446084 0.054584671 8.1435003
-1.1811657 3.5947485 0.19595113 9
-1.0299715 3.7038312 0.3345978 10
-0.85751772 -4.2050838 0.59845132 11.5079
-1.0723442 -2.8194363 0.58267134 12.115643
-0.93717635 -2.7852409 0.6874125 13.178666
-1.0708581 3.6922188 0.58698142 11.5
-0.82982528 -4.0657573 0.94742149 13
-1.1511148 -2.8462784 0.81263155 14.034
-1.0497161 3.6871297 0.96903461 13.666667
-0.60921282 -4.6548338 0.65522766 11.541249
-0.60744858 -4.0570397 0.93695587 13.04075
-0.28454739 -4.6522865 0.65020484 11.54325
-0.284659 -4.0873976 0.93546116 13.042999
1.0793395 -2.8433468 -0.4021419 3.6666667
0.94619375 -2.9047232 -0.19226581 5.65873
0.93713742 -2.8679323 0.053529385 8
1.0916632 4.6608043 0.24814932 9
1.1018623 4.6550918 0.62515855 11.25
1.1066101 4.6375146 1.0891631 13
1.0908272 4.3981824 1.2029421 14.128
1.1024061 4.4145112 1.2081116 14.128
1.4974223 3.476553 -1.0026689 0
1.2308785 -2.7892706 -0.44747135 3.25
1.5661418 4.5244379 -0.49623391 4.5
1.2388753 -2.7914481 -0.1918525 5.6666665
1.5322783 4.480166 -0.18973841 6.3333335
1.3977219 -4.7611246 0.21502529 8.75
1.423238 4.6249075 0.21055751 8.75
1.3890412 -4.785059 0.6376012 11.184334
1.4463538 4.6305113 0.60981715 11.125167
1.4091403 -4.7797599 1.139176 13.026501
1.4398266 4.6341944 1.1090147 13.025299
1.4427924 -4.5695052 1.2733787 14.05375
1.3037065 4.390141 1.2158664 14.12675
1.478003 4.4321489 1.240607 14
1.832322 -3.9748616 -0.84085971 2
1.974497 -3.2752957 -1.0129066 0
1.938545 2.568078 -0.84995699 0
1.8043361 3.6851814 -0.9349162 1
1.6601672 4.0814314 -1.004867 1
1.9123644 -3.9509635 -0.62221926 3.4166667
1.8554522 -2.8490355 -0.77331865 1
1.8034409 -2.4635224 -0.54111534 2.4000001
1.8416004 -2.350476 -0.66709125 1.1
1.9268435 3.6122036 -0.78562433 2
1.7774334 4.0001488 -0.52929574 4
1.8157537 4.5967302 -0.52101994 4.4499998
1.8808638 -2.5687425 -0.34631217 4.3333335
1.8115307 4.5563483 -0.1611155 6.5416665
1.8335575 -4.6206746 0.17323291 8.5
1.9169892 4.2021108 0.081733689 8.1227503
1.8440261 4.5404305 0.16236031 8.4747
1.7956808 -4.6581612 0.56644589 10.75
1.8179303 4.5526705 0.61803007 11.113889
1.8023059 -4.6628671 1.1440625 13
1.836844 4.5633636 1.1242306 13
1.7957971 -4.6250153 1.3190539 14
1.843224 4.5550399 1.3055604 14
2.1790731 -3.7842698 -0.96324348 1.2
2.1337004 -3.4156156 -1.067223 0
2.2431507 -3.8300025 -0.65941077 3.2222223
2.0094094 -2.3101509 -0.58563429 2
2.3096383 -1.9725195 -0.5808723 2
2.3230934 2.26543 -0.7563253 0.83333337
2.2451735 2.4871211 -0.76209611 1
2.2682898 2.8727772 -0.76620257 1.5
2.0708599 3.3820331 -0.76086342 2
2.1444769 3.8709798 -0.69127017 3
2.2118647 4.1085787 -0.64857787 3.5
2.3230762 4.7744384 -0.45821238 5
2.1883805 -4.4563622 -0.17750081 6.4583335
2.1827011 -3.8762953 -0.33148879 5.3333335
2.1091316 -2.4665716 -0.27851972 5
2.1464121 -2.3256571 -0.32520291 4.5
2.3437865 2.9779918 -0.12871252 6.5
2.2169588 3.2898304 -0.066884264 7
2.0691462 3.6593704 -0.070959121 7
2.1784589 -4.4589076 0.20120513 8.666667
2.3100011 -4.3340878 0.25470126 9
2.3607631 3.0620563 0.096589237 8.2374582
2.2208157 3.2845371 0.14298889 8.5727663
2.1007297 3.8238518 0.10873086 8.3206005
2.1917629 4.2022171 0.16794871 8.6212502
2.2348783 4.5605841 0.26340905 9.0606251
2.2228253 -4.4606447 0.57193142 10.791667
2.3185964 -4.2931056 0.59536219 11
2.2315392 3.0631919 0.72792965 12.117
2.2104502 3.3451157 0.62917632 12.11825
2.0636432 3.7986901 0.67878938 12.12075
2.2230108 4.7032924 0.58562607 10.757733
2.2361641 -4.4700155 1.142643 13
2.3505604 2.7991083 0.83304745 13.115
2.3380218 3.0463576 0.87565893 13.11625
2.346751 3.2225428 0.90929949 13.117
2.3360689 3.7360697 0.92660594 12.618999
2.3074713 4.2477922 1.1044152 13.12075
2.2377985 4.70012 1.0672258 12.666667
2.2136216 -4.4768414 1.3273281 14.019333
2.2531822 4.6975265 1.3517689 13.874001
2.6566837 -4.2096715 -1.0017701 1.75
2.4876583 -3.98296 -1.0718241 1
2.4844823 1.9676498 -0.83702379 0
2.4135509 4.5229306 -0.80197114 3
2.7887826 -4.3007126 -0.57704479 4.25
2.6034155 -2.1818616 -0.52911556 3
2.6769526 1.3270301 -0.64721161 1.2916667
2.4904184 1.9628159 -0.69165081 1.25
2.6257372 2.1384325 -0.55138862 2.8
2.4785731 2.5854013 -0.55982882 3
2.4602122 2.9624588 -0.60024154 3
2.4931595 3.5158124 -0.52120483 4
2.6373441 3.6295087 -0.54264313 4
2.4591217 4.0131011 -0.73570615 3
2.4923315 4.4971633 -0.62273407 4
2.4570546 4.8189979 -0.46689302 5
2.5334256 -4.3839197 -0.15594709 6.5999999
2.6352546 1.5794121 -0.10445789 6.5
2.6450038 1.7898673 -0.19109552 5.7466669
2.6039014 2.1801941 -0.083016187 6.7777781
2.4543822 2.600168 -0.16803508 6.125
2.4202487 2.9072211 -0.063680425 7
2.7885096 4.872406 -0.29018798 6
2.6848574 -4.2318344 0.23123793 8.833333
2.79021 1.3284461 0.15982494 9.1027498
2.7100005 1.7306507 0.056998257 8.0352507
2.6164274 2.2243972 0.12388981 8.5553331
2.5239263 2.576488 0.19666685 9.0874281
2.5377519 2.9445207 0.22037713 9.1467094
2.5962968 3.4392083 0.3753562 10.058083
2.4862878 3.6939168 0.38787332 10.118
2.6773925 -4.2128377 0.60369915 10.966666
2.6934285 1.852313 0.74474126 13.10725
2.6587307 2.1531832 0.77922291 13.1095
2.5734894 2.5998833 0.55738479 11.5224
2.7702746 3.1934245 0.66355467 12.1145
2.6148314 3.4545858 0.58345306 11.389833
2.5110738 3.9412732 0.48768941 10.61875
2.499583 4.0057778 0.41145232 10.119
2.6024113 4.7390966 0.6127196 10.870625
2.6668861 4.8422766 0.55849445 10.5206
2.5480928 -4.4092822 1.1643569 13
2.6183476 -4.3601837 1.1627259 13.0605
2.7464681 1.5524626 0.83460742 14.10475
2.6516628 1.790002 0.84697747 14.107
2.6692848 2.2859435 0.87459564 13.681715
2.5198236 2.5519066 0.89763916 13.648499
2.5900567 3.0350041 0.91042113 13.11475
2.4197097 3.5761003 0.98555166 13.118
2.4893534 3.9955871 1.07526 13.119
2.4430041 4.2392006 1.1178715 13.12
2.5244336 -4.4110022 1.350853 14
2.6013882 -4.3302121 1.3425242 14.0605
2.5538669 4.7478704 1.3835387 13.870874
2.7279966 4.8228245 1.4730576 14.12025
2.8460512 -4.2858524 -0.80508888 3
3.1873515 -0.53108811 -0.85383517 0
3.1664176 0.37253255 -0.84219599 0
3.1164167 0.45628881 -0.83185005 0
3.0918612 -4.1849995 -0.44909656 5
3.0493639 0.23728044 -0.66637617 1.25
3.1218815 0.53546613 -0.57830513 2.25
2.9119997 0.93187279 -0.44539329 3.2777777
2.9715734 1.3764257 -0.42120034 3.75
3.1133995 1.6558142 -0.58095539 2.75
2.8215959 2.1910093 -0.55956644 3
2.9591231 2.9218342 -0.60065901 3.3333333
3.0679083 4.1841478 -0.4477945 5
3.0741069 -4.1816444 -0.1732032 6.5277781
3.0953288 0.6018765 -0.16161819 6
2.9841237 1.0578754 -0.089081161 6.666667
2.9245796 1.2246176 -0.080153689 6.75
2.8559263 2.126405 -0.3363905 4.75
2.9918628 4.5603409 -0.2818419 6
3.00791 -4.2212911 0.12872776 8.208333
3.0958841 0.61539286 0.2275687 9.5851068
2.989522 1.0021017 0.14783749 8.8715353
2.9162977 1.2297578 0.073526472 8.2005835
3.023212 1.673308 0.061229113 8.1044998
2.9961965 2.3035264 0.19795233 9.1087866
2.9055541 2.4416628 0.33023632 10.11
3.0032587 -4.2572632 0.58391005 10.714286
3.1057107 0.64074379 0.673307 12.575452
3.0495684 0.90160906 0.66780895 12.5495
2.91465 1.3716675 0.71148282 12.9026
2.8023319 1.6183455 0.73661166 13.105
3.013509 2.3545129 0.46507159 11.109
2.9566867 2.6278055 0.51046222 11.310801
3.0357997 3.0070662 0.67097747 12.112375
2.9276068 3.3360012 0.57862061 11.364374
2.9097028 4.2385902 0.62652165 11.11775
2.9956079 -4.2220883 1.1839753 13
3.1840837 0.39013794 0.8488245 14.0935
3.1228077 0.57452679 0.84042376 14.047792
3.0763211 0.8986659 0.84863967 14.0495
2.9470365 1.3271016 0.85593247 14.102125
3.1609225 1.6075854 0.93929309 14.1035
2.8981271 2.3478806 0.98840433 14.1095
2.9986155 -4.2396412 1.3368984 13.777778
3.1997316 3.9609799 1.3528641 14.1155
3.0993729 4.2683401 1.4019755 14.117
2.9648519 4.5561714 1.4450557 14.1185
2.9134448 4.8442822 1.2928033 13.1195
3.3654871 -0.83701485 -0.91720426 0
3.5892775 -0.63300216 -0.82942665 1
3.3744214 -0.26403886 -0.89521897 0
3.3525388 -0.15456417 -0.67237496 1.75
3.3336885 0.67093539 -0.57060766 2.6666667
3.4298387 0.99850631 -0.43100041 4
3.3267214 1.2752304 -0.42978707 4
3.5728095 1.8216727 -0.62578309 3
3.421643 3.1586189 -0.40135163 5
3.318382 3.3171382 -0.40439007 5
3.4665241 -4.0563087 -0.27571234 6
3.5647032 -3.8285341 -0.27023524 6
3.5788612 -0.91757429 -0.15787894 6.25
3.4702246 -0.6317116 -0.10690143 6.6111112
3.365104 -0.044048268 -0.056472983 7
3.2532463 0.024575721 -0.13883124 6.25
3.397496 2.9012198 -0.3848581 5
3.3341894 -4.3033071 0.23582135 8.75
3.4516048 -0.63930434 0.062206477 8.0210629
3.441093 -0.080964677 0.11264011 8.4596558
3.3677297 0.11084101 0.095300451 8.3457832
3.4303625 0.51733869 0.14415371 8.7609167
3.4005544 1.1546433 0.21937227 9.3493748
3.3391235 1.3851701 0.18966156 9.1012497
3.3116214 1.6666542 0.10898913 8.4366674
3.409687 2.1888137 0.17666389 8.8563747
3.4751704 2.469527 0.2950362 9.5360832
3.4081473 -4.3090878 0.62289804 10.75
3.5278416 -0.69310445 0.7231285 12.25
3.368109 -0.21801008 0.76950538 13.088166
3.241123 0.22729823 0.74013644 13.092
3.5848057 0.96328455 0.45128009 11.0975
3.5822074 1.9926311 0.64324164 12.1045
3.5454059 2.27667 0.66147214 12.106334
3.5027122 2.4927471 0.5936861 11.488433
3.3043482 2.8685029 0.68699467 12.1105
3.2472391 -4.3778992 0.85732025 12
3.5090909 -0.81987488 0.95480245 14
3.508791 -0.6449002 0.88848126 13.5952
3.4773824 -0.092363313 0.85505831 13.589251
3.261337 0.20114221 0.8651951 14.09175
3.2846022 1.5300719 0.95997179 14.1025
3.2740536 1.6319869 0.90270621 13.603251
3.4024966 -4.358223 1.3677645 13.564
3.378067 3.3721726 1.2675654 14.1125
3.2682908 3.7004936 1.3115071 14.11425
3.7345657 -0.80757046 -0.80060047 1.5
3.7043467 -0.51778275 -0.80727148 1.3333334
3.9465735 -3.7387502 -0.56368238 4.5
3.7384002 -1.4285074 -0.5723331 3.375
3.8703289 -1.0382173 -0.76895601 2
3.9378927 -0.41477236 -0.61798674 3
3.6104143 -4.0033321 -0.27858099 6
3.819998 -3.7854686 -0.27792877 6
3.7282741 -1.419414 -0.21670134 5.916667
3.6131535 -0.97143602 -0.098952658 6.7222219
3.8941178 1.7973856 -0.36966604 5
3.7938402 2.1951613 -0.37747893 5
3.7665157 -4.1511531 0.21841995 8.625
3.7304566 -1.335654 0.19232316 8.9162006
3.6374593 -0.98132688 0.10927568 8.3413877
3.7095375 -0.59014773 0.15293708 8.7521667
3.7267439 -0.31328306 0.15204178 8.7542505
3.7113397 0.22738759 0.32368761 10.091749
3.6287792 0.51020014 0.18971874 9.0939999
3.9016786 1.8607224 0.33844203 9.8009996
3.7708337 2.1869998 0.26469827 9.2763119
3.6964264 2.4641597 0.30865949 9.5356665
3.823132 -4.1917653 0.61212713 10.592592
3.7198279 -1.3863564 0.55336636 11.51605
3.6853013 -1.0485581 0.69146031 12.027083
3.8910558 -0.54655379 0.61667752 12.086
3.8961024 -0.16937517 0.61198962 12.088751
3.7683814 0.25206584 0.50537091 11.425251
3.8854187 0.54520512 0.57138658 11.760666
3.7773287 1.0267 0.54847807 11.597584
3.8593969 1.4062111 0.6448046 12.1
3.8502643 1.8626212 0.5573433 11.301225
3.7656827 2.163044 0.51156735 10.924014
3.6873243 2.4550593 0.51365703 10.869
3.7805552 -4.1587076 0.98349404 12
3.7537735 -1.4072186 0.99275398 13.54515
3.686209 -1.033767 0.92026955 13.346916
3.750107 -0.59414697 1.0064992 14.0855
3.696933 -0.16024782 0.94672495 13.83875
3.8967679 1.8591806 0.98555356 13.10275
3.7831907 -4.246511 1.4002527 13.466665
4.3528318 -3.7685931 -0.90175569 3
4.1111178 -1.7368686 -1.0179563 1
4.1820602 -3.7196357 -0.5900231 4.4499998
4.1429238 -1.6989937 -0.62170732 3.5
4.0694637 -1.4391562 -0.59854525 3.5
4.0399294 -0.27860418 -0.63201916 3
4.3046207 0.64094436 -0.52625877 4
4.1412206 0.97739071 -0.58951974 3.5
4.1270418 -3.7448342 -0.19029196 6.5
4.0557728 1.3956177 -0.36937645 5
4.113512 -4.0964041 0.19566174 8.4666662
4.3036861 -3.9816089 0.20443177 8.5
4.2528563 -1.2117838 0.38525569 10.082
4.2604556 -0.98629457 0.22663055 9.0834999
4.3164487 0.60730159 0.37972489 10.094
4.1986032 -4.0949578 0.57286209 10.3
4.2367849 -3.9974942 0.71049362 11
4.0102696 -0.56033087 0.63542908 12.086
4.1815329 -0.1854725 0.65730596 12.088751
4.0875974 0.2396737 0.64272141 12.091667
4.1786361 0.55111635 0.58511883 11.59375
4.0385513 0.91350061 0.61332625 11.846375
4.0528617 1.3954837 0.52186441 11.099501
4.1721697 -4.0939031 0.98877048 12.333333
4.0231361 -0.52781552 1.0762897 14.08625
4.0780587 -4.14467 1.460235 13.6134
4.3562727 -3.9760728 1.5691494 14
4.7511911 -2.2891676 -0.82535571 3
4.5730848 -1.9754317 -0.95799315 2
4.6660066 -1.0845767 -0.92085201 2
4.616169 -3.6585529 -0.5592379 4.75
4.6663661 -2.1721287 -0.57008082 4.2999997
4.5489855 -1.2252816 -0.7364831 3
4.7725515 -1.1895602 -0.76922554 3
4.6366649 -0.69237608 -0.64858204 3.5
4.583777 -0.25174078 -0.55568576 4
4.6124215 -3.6262515 -0.099723317 7
4.6205211 -2.1761611 -0.17535645 6.5
4.5773344 -1.9960924 -0.17113581 6.5
4.5216074 -3.8497822 0.15996207 8.2806339
4.7988963 -3.5973673 0.10606248 8
4.7696552 -2.2903991 0.18421455 8.5
4.4853668 -0.1197386 0.39093241 10.089251
4.5322351 -4.0141611 0.63330853 10.5
4.6158147 -3.8074324 0.59106475 10.333333
4.7648444 -2.288806 0.55226415 10.5
4.6600246 -1.016206 0.52486569 10.7505
4.6130252 -0.58960801 0.49197528 10.631819
4.5642576 -0.18991254 0.52979523 10.922168
4.4643331 0.11933668 0.54377025 11.09075
4.5503111 -4.0071478 1.1237417 12.785714
4.60886 -3.8236697 1.0060652 12.3
4.6629405 -3.6965868 1.5829149 14
4.6300254 -0.44884601 1.2352567 14.08725
4.6795115 -3.818732 1.6070194 14
4.8329043 -3.6089811 -0.41692233 5.5
4.8396564 -3.5826058 -0.73042887 4
5.0010614 -3.0564079 -0.40482795 5.5
4.8963566 -2.7227602 -0.48381752 5
4.8489652 -1.0342654 -0.58694351 4.083333
4.8306384 -3.6106091 -0.10254506 7
5.0922136 -3.4779942 -0.22963084 6.4166665
5.0491858 -3.04918 -0.10025548 7
4.8752708 -2.7148757 -0.19184822 6.5
4.8342285 -3.600198 0.10659133 8
5.059557 -3.4831409 0.10864809 8
5.0159912 -2.9873312 0.27003118 8.8520832
4.908617 -2.6622767 0.21073282 8.602396
4.992384 -2.1029754 0.20399065 8.583334
5.05265 -1.7913054 0.15551591 8.333334
4.8526206 -3.6217446 0.58003718 10.25
5.0827913 -3.5164566 0.6465556 10.5
4.8671656 -2.6373682 0.5977357 10.61525
5.0144858 -2.1495121 0.57045019 10.5
5.0703187 -1.7758669 0.57991064 10.6162
4.9463573 -1.396939 0.58218437 10.832126
4.8479156 -1.0309577 0.4321233 10.084
4.8612208 -3.6263404 1.0618678 12.5
5.1100831 -3.4962785 1.0291315 12.25
5.1693673 -2.1002812 0.87763673 12
5.1778636 -2.8733189 1.575161 14.0755
5.0951352 -2.59585 1.5208797 14.0765
5.0735755 -2.1545565 1.4139626 13.789
5.127563 -1.8679649 1.247952 13.08
4.878695 -3.6238451 1.616887 14
4.9887991 -3.5856745 1.6346116 14
5.2913089 -3.4274638 -0.47139713 5.3333335
5.3526525 -3.4313602 -0.1082008 7
5.3191347 -3.4388378 0.11201039 8
5.2664723 -2.9200122 0.10650375 8.0755005
5.3024621 -2.6944134 0.10518177 8.0764999
5.347261 -3.375092 0.62461728 10.333333
5.286581 -3.0682411 0.64052534 10.53775
5.3284974 -2.7053111 0.52149123 10.0765
5.3127556 -3.3347256 1.0147176 12.125
5.4690561 -3.0350356 1.0208256 12.192
5.3374119 -2.6101384 1.0401803 12.577
5.2357197 -2.273448 0.89795089 12.039
5.3525419 -3.4072285 1.2237315 13
5.4862041 -3.1196859 1.2169919 13
5.2283149 -2.2387967 1.3010296 13.026
5.3335848 -3.3971262 1.6830128 14
5.507822 -3.1710021 1.6912628 14
