# .PCD v0.7 - Point Cloud Data file format
VERSION 0.7
FIELDS x y z intensity
SIZE 4 4 4 4
TYPE F F F F
COUNT 1 1 1 1
WIDTH 527
HEIGHT 1
VIEWPOINT 0 0 0 1 0 0 0
POINTS 527
DATA ascii
-4.467628 2.5900788 0.17972675 8.5
-4.4727197 2.5909455 0.54028064 10.5
-4.4738798 2.5890088 0.99744791 12.5
-4.4567952 2.5770524 1.3683634 14
-4.1649032 2.672889 -0.4835521 4.6666665
-4.0864372 1.592995 -0.12452372 6.6666665
-4.2242332 2.6782696 -0.1422125 6.6666665
-4.2175183 1.7965741 0.15949032 8.5
-4.3875041 2.3306587 0.17285624 8.5
-4.1950803 2.6674042 0.17309353 8.5
-4.2103496 1.7818339 0.59791028 11.25
-4.3685217 2.2848294 0.60849577 11.041666
-4.2409387 2.6463304 0.63328826 11.138889
-4.0141091 1.1504238 1.0307214 13.672
-4.1216092 1.4954091 1.0827756 13.585249
-4.2108159 1.7705467 1.0806009 13.222222
-4.3656068 2.2549365 1.1232204 13
-4.1988773 2.6663976 1.1378053 13
-4.2114687 1.8064959 1.2171518 14
-4.3574886 2.2667103 1.3053706 14
-4.3610964 2.583554 1.3473978 14
-3.6928792 2.3991222 -1.0044997 1
-3.6282008 2.5066521 -0.92666227 1.5
-3.6431391 1.5105094 -0.51229924 3.75
-3.6106803 2.2527668 -0.6647715 3
-3.6418464 2.5362995 -0.6341359 3.375
-3.7585721 2.8514736 -0.63755584 3.5999999
-3.6482787 -0.074773677 -0.12454882 6.5
-3.6187818 1.4935808 -0.13389109 6.5
-3.7733185 2.8322592 -0.16159001 6.5
-3.6444674 -0.080993935 0.25792018 9.5
-3.7604847 2.8337374 0.16380799 8.5
-3.6231251 -0.1608901 0.74028999 12.333333
-3.9975874 2.7548087 0.50725186 10.5
-3.7670047 2.8309243 0.61648142 11.25
-3.621954 -0.11326908 0.96066797 14
-3.6470304 0.24245922 0.9420591 13.978101
-3.7128949 0.61619365 0.97005105 13.975301
-3.9536617 0.95308542 1.003847 13.673251
-3.7710612 2.8294144 1.0772706 13
-3.9970217 2.7430336 1.2881627 14
-3.7069297 2.8380697 1.2400634 14
-3.275532 1.433128 -0.94644016 0
-3.3289087 1.7882229 -0.94200498 0.41666669
-3.4726553 2.1302423 -0.92634684 1
-3.4560077 2.6027167 -0.98691821 1
-3.3154895 1.4844851 -0.66609859 2.2083333
-3.4554281 1.8050611 -0.64810133 2.7
-3.565609 2.0908747 -0.60926813 3.25
-3.59606 2.497504 -0.76256388 2.5
-3.4451826 2.9309981 -0.60753959 3.625
-3.4733512 1.7331381 -0.20308214 5.98
-3.5806892 2.0828507 -0.28519452 5.5
-3.412385 2.9504895 -0.15450415 6.5
-3.3899374 0.15333129 0.2276608 9.4822807
-3.3878624 0.68707675 0.29660735 10.041734
-3.3818653 0.8256982 0.23645537 9.5014582
-3.4085042 2.9446661 0.15669307 8.5
-3.2448719 -1.3551548 0.75134552 12.6
-3.3479125 -0.96462411 0.67988855 12.085333
-3.4880679 -0.58717567 0.75450063 12.583334
-3.5983737 -0.12468831 0.43788445 11.001
-3.3565452 0.23042518 0.46662146 11.33875
-3.3084791 0.65908456 0.58720589 11.83725
-3.3582993 0.83908075 0.42084727 11.08625
-3.4316537 2.9415402 0.58293396 11.2
-3.2257137 -1.3599918 0.92799342 14
-3.3417356 -1.0123782 0.92571467 14.003875
-3.4738441 -0.59382832 0.93581319 14
-3.5972719 -0.18417957 0.95479339 14
-3.5872567 0.21215706 0.86367798 13.511666
-3.3932621 2.9501262 1.1103289 13.5
-3.5383081 2.8959348 1.2142447 14
-2.882458 1.1666986 -0.82151151 0
-3.032212 2.2750897 -1.0043991 0
-2.8842931 1.1059071 -0.61102676 1.825
-3.0316129 3.0895424 -0.43616292 4.583333
-3.0233498 -1.9108027 -0.060166996 7
-2.8927817 1.0310969 -0.15251945 6.0500002
-2.9890149 3.0974987 -0.22196598 6
-2.9982581 -2.066221 0.14328177 8.6293755
-3.0345383 -1.9609367 0.19033018 9.0053329
-2.9006929 -0.90591246 0.31642529 10.508666
-2.944886 -0.73318273 0.31595933 10.507
-3.0769291 0.31173083 0.21645527 9.677125
-3.0015874 0.54131591 0.22186494 9.7749004
-2.9743073 0.96590167 0.24174379 9.7402029
-3.0512505 3.0560493 0.12539971 8.333333
-2.9525852 -2.1381917 0.63255006 11.536934
-3.094825 -1.8073794 0.75378692 12.5
-3.0869796 -1.4695878 0.7162751 12.51275
-3.0383773 0.13208292 0.5832988 12.17875
-3.065979 0.50207692 0.6232565 12.425375
-2.9133151 0.97432715 0.56983423 11.980344
-2.9880495 3.0844431 0.56191999 11.25
-2.9360282 -2.1884942 0.93725783 13.75
-3.0869977 -1.7864524 0.9469409 14
-3.1725333 -1.5120121 0.93153065 14.01275
-3.1110203 0.95541453 0.86174059 14.1715
-3.0549152 3.0565023 1.089523 13.633334
-2.5641468 3.2412901 -0.24883151 5.75
-2.5539465 3.2253489 0.14310703 8.5
-2.5694735 3.2231796 0.54595417 11.3
-2.5340259 3.2300935 0.98765755 13.333333
-2.3171117 2.0744455 -0.82151079 0
-2.1881807 -4.5197687 -0.52091426 4.5
-2.1894689 2.098783 -0.64415509 1.4166666
-2.2916412 2.5920224 -0.41735581 4
-2.019676 3.4189873 -0.58535528 3.25
-2.1976094 -4.4194584 -0.19814 6.3333335
-2.208663 3.3536716 -0.24168974 5.75
-2.2062457 3.3393941 0.13922197 8.5
-2.2044435 3.3407819 0.52302456 11.25
-2.2016978 3.3376427 0.98683357 13.5
-2.1586354 -4.5337415 1.3347635 14.032249
-1.8681111 2.9587398 -0.90179777 0.1875
-1.8569322 3.3598752 -0.95920223 0.40000001
-1.7572317 2.3745892 -0.67140418 1
-1.8053861 2.5899346 -0.58169413 2.2
-1.9038005 2.9866412 -0.59925282 2.6333334
-1.7649132 3.4818892 -0.59892136 3.0833333
-1.7880489 3.4784477 -0.13380603 6.5
-1.7764107 3.4793284 0.14725581 8.583334
-1.7880937 3.4739859 0.572442 11.483334
-1.7713885 3.4734089 1.0353025 14
-1.4592204 3.0069883 -0.88358581 0
-1.2340986 -2.8856351 -0.43318439 3.5
-1.5252845 3.4510174 -0.65596181 2.5
-1.2969919 -2.8975782 -0.20003198 5.6666665
-1.4193337 3.5266914 -0.21298231 5.8666668
-1.2260054 -2.8735063 0.055421535 8
-1.2928596 3.5765655 0.11105494 8.333334
-1.3572048 3.6127706 0.29024664 9.666666
-1.2636083 -2.8910358 0.59290272 11.875
-1.385442 3.5923893 0.46831125 11
-1.3518413 3.6246519 0.69860387 12.333333
-1.2981977 -2.8992965 0.84106433 14
-1.4092144 3.59091 0.95135081 13.5
-1.2984046 3.6274729 1.0216324 14
-1.0917482 -2.8278382 -0.61411572 1.6875
-1.1594546 2.7296386 -0.78271186 0
-1.0967926 -2.8306952 -0.12983175 6.25
-1.1191407 2.9293482 -0.34186041 4.3333335
-1.0864227 -2.8445446 0.20292443 9.416667
-0.89919734 2.9546428 0.05476094 8.1435003
-1.1319135 3.6481817 0.24326877 9.3813334
-0.83323687 -4.2887421 0.60911888 11.5395
-0.98368245 -2.8133013 0.60769129 12.392857
-0.90608734 -2.7859592 0.75686806 13.851418
-1.0751919 3.702549 0.55449551 11.5
-1.0757141 3.7012155 0.97431695 13.666667
-0.61226755 -4.6710467 0.65751517 11.541249
-0.60912758 -4.0715761 0.94031996 13.040749
-0.28650561 -4.6645632 0.65198523 11.54325
-0.28623125 -4.0970602 0.93770379 13.042999
1.0889019 -2.8577795 -0.4043211 3.6666667
0.97143561 -2.9275973 -0.15815063 6
0.93361753 -2.8795745 0.053705651 8.0539999
1.1050375 4.6958556 0.25008586 9
1.11035 4.6789384 0.62876457 11.25
1.1229631 4.6766629 1.0988069 13
1.0984982 4.3962741 1.2029421 14.128
1.1121721 4.4517751 1.2184509 14.128
1.4356445 3.5575314 -1.0159249 0
1.3146126 3.6031697 -1.0154939 0
1.5335748 4.2023139 -1.0202039 1
1.2286608 -2.8086441 -0.4230217 3.5
1.2465706 -2.7949347 -0.47610539 3
1.5465554 4.5362267 -0.49718606 4.5
1.2415544 -2.8061502 -0.20145495 5.5833335
1.5159215 4.4867105 -0.16235466 6.5
1.4421407 -4.7546844 0.17311867 8.5132504
1.4924343 -3.6756542 0.070275657 8.0559998
1.3470123 -3.5073259 0.066573821 8.0555
1.4804068 4.5774055 0.16853854 8.5313749
1.3509681 4.8064737 0.25885901 9
1.4443783 -4.8031926 0.78856266 12
1.4228451 -4.7901306 0.55164331 10.684334
1.4253356 4.6622958 0.63712126 11.271084
1.4092325 4.8132935 0.43721318 10
1.4268281 -4.7931886 1.1432874 13.017667
1.4256339 4.6818466 1.118543 13.031625
1.4853772 -4.5808825 1.2796255 14.054
1.4248489 4.439682 1.2382683 14.042251
1.8788505 -3.9748137 -0.84466898 2
1.9835753 -3.2924075 -1.0180795 0
1.6489533 3.3879249 -0.99738801 0
1.767844 3.7990391 -0.9551158 1
1.7936221 4.1928411 -0.9559564 1.5
1.9316812 -3.9535346 -0.61119688 3.5
1.8593186 -2.8581431 -0.775563 1
1.8045949 -2.468998 -0.61192012 1.75
1.8453386 -2.3771486 -0.6832208 1
1.8732966 4.0374808 -0.53839684 4
1.7996227 4.6094718 -0.51893497 4.4666667
1.8298744 -2.447088 -0.36790064 4
1.8122878 4.5831699 -0.16893633 6.5
1.8360568 -4.6380091 0.16527312 8.4499998
1.9505537 4.1899686 0.081792489 8.1225004
1.8278093 4.5541315 0.17406707 8.5372496
1.795441 -4.6783099 0.56114638 10.708333
1.8010743 4.5610099 0.61948806 11.125
1.79272 -4.6879835 1.1483252 13
1.8260788 4.574656 1.1258103 13.030875
1.7974496 -4.6590652 1.3275527 14
1.8620609 4.5774045 1.3129108 14.030875
2.2599349 -3.828696 -0.92424226 1.5555557
2.1622529 -3.4661379 -1.082742 0
2.2341499 -3.853687 -0.62971532 3.4285715
2.0354371 -2.3390651 -0.53745151 2.5
2.3431499 -1.9711771 -0.58563387 2
2.3236356 2.25526 -0.7707969 0.69999999
2.3050809 2.4679387 -0.72760469 1.3333334
2.3752842 2.9276648 -0.72276974 2
2.0375633 3.4551172 -0.76975197 2
2.2675114 4.0113249 -0.72011477 3
2.2389512 4.7478042 -0.453004 5
2.1896698 -4.4767127 -0.17100024 6.5
2.386126 -4.3951488 -0.2582396 6
2.3047757 -3.8313112 -0.38529351 5
2.0927894 -2.4929745 -0.27938783 5
2.1661017 -2.3480034 -0.32815254 4.5
2.348376 3.0165768 -0.12929313 6.5
2.2378271 3.3328853 -0.067719325 7
2.0768752 3.6664371 -0.071131885 7
2.2492783 -4.4587831 0.20815331 8.6999998
2.3687694 3.1126564 0.10693949 8.3166113
2.2783923 3.3131669 0.15444648 8.6395168
2.1097009 3.8326223 0.1089424 8.3205996
2.3170905 4.1844902 0.24794292 9.1204996
2.1924024 4.5965734 0.2641238 9.0608749
2.1861956 -4.4984426 0.57441556 10.791667
2.3341568 -4.3033442 0.64056802 11.25
2.2557392 3.0941465 0.73554152 12.117
2.2232614 3.3603354 0.63230157 12.11825
2.0726671 3.8218267 0.68269587 12.120749
2.2177863 4.7159462 0.58050376 10.7244
2.1900141 -4.5097928 1.146148 13.019333
2.3358312 3.015929 0.87005216 13.116125
2.2532151 3.2174895 0.89584321 13.1175
2.2854898 3.7925191 0.85162151 12.1195
2.3067999 4.2537751 1.1055365 13.12075
2.2009473 4.7149782 1.0655626 12.666667
2.1861215 -4.5072331 1.3314089 14.019333
2.2180781 4.7047544 1.360406 13.929501
2.6021068 -4.2460895 -1.0467098 1.5
2.5872521 1.9833016 -0.86159545 0
2.7936904 -4.3209066 -0.71449006 3.5
2.6607172 -2.1900346 -0.53691137 3
2.4100721 -1.9518257 -0.59325248 2
2.7072713 1.3535026 -0.64272475 1.4
2.6367812 1.9557824 -0.71613187 1.25
2.5778072 2.2102602 -0.55634338 2.7666667
2.5314302 2.5661886 -0.52838987 3.25
2.4548395 2.9813187 -0.60126817 3
2.4946444 3.4995623 -0.5195868 4
2.4512069 3.6266019 -0.52929491 4
2.4697077 4.0239377 -0.73804486 3
2.4666383 4.8252411 -0.46776113 5
2.5638504 -4.392385 -0.15668929 6.5999999
2.6619768 1.5991889 -0.15913241 6
2.655946 1.7663709 -0.17350329 5.9083333
2.656888 2.2013257 -0.1340484 6.375
2.4610248 2.6222811 -0.18395036 6
2.4350348 2.8847277 -0.063565224 7
2.6741238 -4.2600293 0.20883052 8.6999998
2.7987304 1.3685628 0.16112463 9.1029997
2.7311013 1.747113 0.057468332 8.0352507
2.6406083 2.277667 0.17005457 8.9142189
2.50791 2.5963199 0.20880313 9.1715069
2.4839065 2.9922042 0.15616705 8.6728945
2.6220968 3.4006445 0.37404633 10.038834
2.6794872 -4.2268662 0.60517091 10.966666
2.7348237 1.8013339 0.74655586 13.026438
2.6436639 2.0672379 0.7642715 13.109
2.5533707 2.5924196 0.58396906 11.653063
2.6633923 2.8820267 0.44354644 10.806749
2.6515141 3.4466698 0.60883468 11.535916
2.5425384 3.9571345 0.51832271 10.785333
2.5023789 4.0040321 0.41145232 10.119
2.6635821 4.7318997 0.66221887 11.120334
2.6314335 4.8424091 0.5443787 10.454082
2.4883537 -4.4474497 1.1651722 13
2.6075594 -4.3439269 1.1582404 13.0605
2.6511598 1.8360239 0.85382152 14.026667
2.690491 2.2826707 0.89074451 13.776833
2.5303202 2.5533266 0.89785874 13.632571
2.5593617 2.9971642 0.89920759 13.11475
2.4457037 3.7726293 1.0266681 13.1185
2.4508319 4.2459354 1.1201142 13.12
2.4922874 -4.4369116 1.3526479 14
2.6105745 -4.3472319 1.3476938 14.0605
2.6023083 4.79564 1.3508862 13.62075
2.6326981 4.8369493 1.4640106 14.12075
2.8441176 -4.2447424 -0.8898983 2.5
3.1738214 0.38995376 -0.84478247 0
3.1344557 0.46477553 -0.83702296 0
2.9210911 -4.2758288 -0.44703749 5
2.9863648 -0.011767902 -0.43787691 3.25
2.9615669 0.108344 -0.54856133 2.1666667
3.1484783 0.54013705 -0.58066344 2.2777777
2.8974943 1.0269607 -0.45130467 3.25
3.1384547 1.3708305 -0.44294986 3.75
3.0159039 1.7072129 -0.66372436 2
2.8667681 2.16295 -0.56082273 3
2.9958408 2.940686 -0.65540802 3
3.1717284 4.0577159 -0.44432202 5
3.0242393 4.4728227 -0.46602425 5
3.0708842 -4.2075901 -0.20910634 6.3333335
3.0077689 -0.0067549641 -0.28372139 4.75
3.0213954 0.13409963 -0.2896952 4.6999998
3.123575 0.61572021 -0.17455396 5.9000001
2.9967091 1.067049 -0.08954601 6.666667
2.9656332 1.2496927 -0.08113347 6.75
2.8202326 2.1699917 -0.36692286 4.5
2.9991913 4.5732861 -0.2826243 6
2.8350165 4.857018 -0.29070953 6
3.0292721 -4.2468457 0.21146043 8.666667
3.1189106 0.62214774 0.23660585 9.6565351
3.0054715 1.002498 0.14601938 8.8499441
2.9132588 1.2477165 0.09125296 8.3673334
2.9292004 1.6540673 0.059613194 8.1047497
3.0655694 2.3544924 0.24625821 9.3695717
2.9123268 2.4490871 0.33110961 10.11
2.9888334 -4.2760258 0.59158462 10.75
3.1422262 0.56807947 0.70195264 12.809555
3.0774043 0.92678529 0.75058669 13.1997
2.8942392 1.4560608 0.68082345 12.551083
3.0456254 2.3586729 0.4460153 10.869667
2.9289057 2.5939982 0.47592276 11.11075
3.0755579 2.9919968 0.67386842 12.1121
2.9038711 3.3371463 0.60053593 11.514501
2.9086311 4.2333112 0.6259132 11.11775
2.8513439 4.7597919 0.48393634 10.1195
2.9805324 -4.255754 1.1883646 13
3.145689 0.5613851 0.84572262 14.04765
3.0551159 1.0514995 0.85528636 14.0995
2.9629443 1.3332752 0.86045587 14.102125
3.1642547 1.613795 0.87461513 13.6035
2.9044011 2.3554816 0.99098915 14.1095
3.0093775 -4.2362356 1.3572273 13.875
3.1102839 4.2803125 1.4062835 14.117001
2.9268086 4.5954604 1.4485021 14.11875
2.916826 4.8422475 1.2928033 13.1195
3.3782547 -0.90282625 -0.92496371 0
3.4699321 -0.5799576 -0.84046638 0.66666669
3.3812249 -0.20937891 -0.89651221 0
3.3518856 -0.15611501 -0.67286718 1.75
3.276953 0.11194497 -0.62753534 2
3.3598244 0.63903779 -0.5946874 2.5
3.3974144 0.92139685 -0.48549345 3.5
3.3850038 1.7256098 -0.56120718 3.25
3.4283783 3.1659553 -0.40221968 5
3.3639383 -4.0738416 -0.18249461 6.5
3.581527 -0.90440524 -0.18990651 6
3.4952824 -0.65168774 -0.12142675 6.5
3.2164907 0.25912192 -0.10957705 6.5
3.4191368 2.9218462 -0.38746235 5
3.3154237 -4.3087635 0.14310658 8.25
3.4850907 -0.67958689 0.062918946 8.0422497
3.4775763 -0.1312248 0.10155787 8.4222507
3.33829 0.2333549 0.097661898 8.3671789
3.4150412 0.48093966 0.10987049 8.4940004
3.4117296 1.1549587 0.27206513 9.7659998
3.3556561 1.3908859 0.19066709 9.1012497
3.2859404 1.6736746 0.09772712 8.3535004
3.4161153 2.1930437 0.17696792 8.8563747
3.4933147 2.4999568 0.3228479 9.7027502
3.2774403 -4.4008336 0.47869709 10
3.3609006 -4.3421559 0.63823867 10.833333
3.5420952 -0.69249302 0.72557145 12.25
3.4388719 -0.33047384 0.78707337 13.08725
3.2655065 0.17135532 0.74494219 13.091499
3.2303751 0.40209043 0.74109763 13.0935
3.5957353 0.96084112 0.45249707 11.0975
3.5763526 2.2892189 0.66668093 12.106334
3.5158796 2.5034287 0.59600145 11.488433
3.2958896 2.8631797 0.68543208 12.1105
3.2513201 -4.3625607 0.85575759 12
3.5197899 -0.816544 0.95738727 14
3.5320501 -0.69225997 0.89470923 13.583943
3.4578419 -0.083407447 0.87182182 13.756001
3.2655892 0.22784287 0.86691833 14.092001
3.300236 1.5422603 0.96514148 14.1025
3.3277416 1.6192458 0.98065042 14.103
3.461194 -4.3662314 1.3920045 13.592133
3.3843153 3.3795865 1.2701502 14.1125
3.2566049 3.7989523 1.3296009 14.114667
3.879756 -3.7536738 -0.65428323 4
3.7588866 -1.4232177 -0.57508314 3.375
3.878232 -1.0417213 -0.770702 2
3.7353525 -0.60882747 -0.79469854 1.5
3.9618299 -0.38229051 -0.62110507 3
3.6182182 -4.0231833 -0.27962425 6
3.9005857 -3.780488 -0.25933284 6.1111112
3.7304893 -1.4111562 -0.20573376 6
3.6308248 -0.9634192 -0.09918531 6.7222219
3.9127614 1.7443038 -0.36901498 5
3.8400085 2.1261406 -0.37805757 5
3.794205 -4.1444988 0.21137892 8.583333
3.7332454 -1.3548378 0.24129917 9.25
3.6993921 -1.0566145 0.13690539 8.53654
3.7658222 -0.59959149 0.17222773 8.8855
3.7392395 -0.29991987 0.14402354 8.6877003
3.7395396 0.20925575 0.32604554 10.0916
3.6689632 0.51127321 0.19179827 9.0939999
3.9156492 1.8948747 0.37906942 10.051125
3.8001509 2.2020357 0.26129481 9.2376413
3.6961513 2.4764779 0.27002043 9.25
3.788734 -4.1900992 0.61754376 10.633333
3.7423203 -1.4090409 0.59203041 11.770062
3.7029881 -1.0128897 0.70415199 12.027249
3.8717439 -0.6477806 0.61589611 12.08525
3.9604921 -0.16982834 0.62214673 12.088751
3.7558572 0.28870124 0.48575091 11.2922
3.8588502 0.54523718 0.56698906 11.760666
3.7241638 0.98547822 0.50500619 11.347375
3.8797805 1.414006 0.64824241 12.1
3.8533685 1.8947071 0.55955064 11.30125
3.7894921 2.1698947 0.51497108 10.917967
3.705617 2.4647233 0.50330263 10.75
3.7840161 -4.1945333 0.98836946 12
3.7635672 -1.4101694 0.99535477 13.54515
3.6798382 -1.0110617 0.92660642 13.4164
3.7698128 -0.59322959 1.0116688 14.0855
3.6956346 -0.15630555 0.92619449 13.6888
3.9194787 1.8682915 0.99116033 13.10275
3.8212566 -4.2384257 1.4335257 13.6
4.1171122 -1.7351992 -1.0190785 1
4.0105476 -1.071839 -0.94613534 1
4.2136879 -3.7563555 -0.59999472 4.4285712
4.1767788 -1.7317066 -0.60099888 3.6666667
4.1405749 -1.3801531 -0.6584053 3.1666667
4.0693417 -0.28278372 -0.63669658 3
4.2902126 0.74006844 -0.52656221 4
4.151053 1.0077183 -0.55376321 3.75
4.1425061 -3.7691722 -0.18535006 6.5333333
4.0702477 1.4045252 -0.37082323 5
4.1795421 -4.1129508 0.20444632 8.5
4.2951183 -3.9844491 0.10362051 8
4.2703104 -1.2232109 0.38700232 10.082
4.3007574 -0.98931193 0.22871013 9.0834999
4.3362947 0.60984892 0.38147146 10.094
4.2165489 -4.1057301 0.58712935 10.361112
4.0071073 -0.42430606 0.63230383 12.087
4.2221522 -0.24823049 0.6640774 12.088333
4.11552 0.15986465 0.64668012 12.0911
4.205307 0.55656314 0.58907044 11.59375
4.037396 0.94980866 0.62174058 11.896601
4.0657125 1.4006984 0.52356821 11.0995
4.2325482 -4.0859399 1.030437 12.5
4.1070828 -4.1603818 1.4682925 13.6
4.3805275 -3.9829884 1.5750985 14
4.5809007 -1.9821107 -0.95989782 2
4.6086521 -3.6964943 -0.40819526 5.5
4.6429696 -2.1336079 -0.57243484 4.265873
4.6469417 -1.3558407 -0.75714201 3
4.7694268 -0.76107055 -0.75519294 3
4.6120811 -0.29194158 -0.55932617 4
4.6310458 -3.6398795 -0.10012067 7
4.6194396 -2.1309526 -0.17886513 6.4749999
4.5887418 -1.9731077 -0.1706802 6.5
4.558682 -3.8145409 0.19061294 8.425354
4.7812586 -2.2786269 0.18460065 8.5
4.5701723 -0.11825478 0.39835548 10.089251
4.5106087 -4.0618434 0.52978653 10
4.63129 -3.8454967 0.65324676 10.611112
4.77841 -2.3011036 0.57282448 10.6154
4.6112528 -0.98168319 0.57443792 11.084
4.6572833 -0.54609472 0.48900679 10.586666
4.5973654 -0.22994788 0.50701499 10.75525
4.4947591 0.078830667 0.54742128 11.0905
4.6849074 -4.0063572 1.1884468 13
4.6206942 -3.8550296 1.0180413 12.333333
4.6406507 -0.4891094 1.239134 14.087
4.6680532 -3.8413451 1.6085743 14
4.8695159 -1.0284989 -0.95704037 2
4.8600345 -3.6094747 -0.57639676 4.75
5.0188351 -3.5492797 -0.57823437 4.7777781
4.9037981 -2.6991048 -0.48338348 5
4.8090019 -1.2066714 -0.77546215 3
4.8663788 -1.0347919 -0.55960971 4.25
4.846549 -3.6171658 -0.102833 7
5.0659313 -3.5464771 -0.10521093 7
5.0292931 -3.0517731 -0.16787013 6.6666665
4.8903456 -2.7075059 -0.19213007 6.5
4.843143 -3.613281 0.10685575 8
5.025372 -3.561528 0.21439914 8.5
5.0229602 -3.0131671 0.22338082 8.6149998
4.9174786 -2.6448553 0.21072897 8.602396
5.006484 -2.1528366 0.23696861 8.75
5.0512552 -1.8116802 0.14584564 8.3046112
4.8929353 -3.6251087 0.6011191 10.333334
5.1121864 -3.3953202 0.64294636 10.5
5.037159 -3.0447471 0.41013029 9.5
4.8776155 -2.6332798 0.59811568 10.6153
4.9471464 -2.2205446 0.51970589 10.26925
5.0858712 -1.7847265 0.582003 10.6
4.9475393 -1.3610765 0.55488181 10.682301
4.8472404 -0.98753977 0.43132281 10.084249
4.9014668 -3.6267686 1.0676043 12.5
5.0578117 -3.5795188 1.1946318 13
5.1821365 -2.1312413 0.84873486 11.833334
5.1947551 -2.8826973 1.5803306 14.0755
5.1089053 -2.6042969 1.5251877 14.0765
5.0895824 -2.1623459 1.4185588 13.789
5.1167769 -1.8690917 1.2457092 13.08
4.8956442 -3.6311219 1.6216873 14
4.9800515 -3.5978189 1.6346116 14
5.4261479 -3.4258816 -0.44343528 5.5
5.327693 -3.4454725 -0.25397304 6.333333
5.2616501 -2.6426923 -0.2017754 6.5
5.3245564 -3.4551351 0.18421081 8.333333
5.2662249 -2.9204764 0.10650375 8.0755005
5.3044419 -2.6756849 0.10506426 8.03825
5.3446312 -3.4021842 0.67895025 10.574075
5.3220644 -2.9491305 0.53109747 10.0755
5.3457866 -2.7152674 0.52323788 10.0765
5.2943978 -3.3603384 1.0163873 12.133333
5.5055513 -3.1013873 1.018913 12.13639
5.3567405 -2.6151929 1.0437026 12.577
5.244451 -2.2907083 0.9002949 12.039
5.4120364 -3.3814292 1.2308413 13
5.5082488 -3.0819786 1.216992 13.03775
5.2487507 -2.2613068 1.3073839 13.026
5.3916211 -3.3784466 1.6935782 14
5.5170469 -3.1500468 1.6906167 14
