# .PCD v0.7 - Point Cloud Data file format
VERSION 0.7
FIELDS x y z intensity
SIZE 4 4 4 4
TYPE F F F F
COUNT 1 1 1 1
WIDTH 1201
HEIGHT 1
VIEWPOINT 0 0 0 1 0 0 0
POINTS 1201
DATA ascii
-4.1371822 -1.3650937 -0.20112126 7.2342224
-4.317903 0.51063049 -0.37510589 6
-4.1695399 -2.1264794 0.17797077 9.1785717
-4.1670237 -1.7863257 0.21180725 9.9284945
-4.2265196 -1.4520214 0.13167627 9.2406874
-4.243196 -0.99348652 0.029537782 10.03425
-4.1678329 -0.66807014 0.27419898 10.0455
-4.0239615 -0.3139759 0.35013467 10.033084
-4.1733961 -2.129025 0.57655764 11.666667
-4.1772027 -1.7947437 0.6511994 12.275191
-4.3016915 -1.5558741 0.59662831 11.891687
-4.1045728 -0.93507636 0.62365079 12.40902
-4.1482048 -0.52541691 0.48789996 11.557099
-4.1599207 -0.17946915 0.60953283 12.3935
-4.2305102 0.18049969 0.58448958 11.594713
-4.0893345 0.51192969 0.57852131 11.036813
-4.0302181 1.0871042 0.41773498 10
-4.1742353 -2.1166666 0.96211916 13.524281
-4.1611915 -1.809399 0.94491708 13.813115
-4.3248162 -1.5853918 0.97017217 13.76675
-4.0772548 -0.851834 0.88476914 13.10225
-4.286025 -0.64886779 1.0335071 13.795
-4.3885107 0.46570155 1.1337271 13.009
-4.0146523 1.1624829 1.199554 13.03
-4.272665 -0.22747295 1.3817357 14.037416
-4.2273664 0.22470242 1.3915685 14.043111
-4.2241364 0.49821222 1.2907796 13.690445
-3.8448122 -2.2562211 -0.94715297 1.5
-3.8870528 -1.7093885 -0.94227171 1
-3.812943 -1.412225 -1.0542461 1
-3.6210518 -0.85555142 -0.86831653 1.5
-3.6622059 -2.4648829 -0.62753201 2.5
-3.8812304 -2.3009391 -0.58264291 3.3333333
-3.914067 -1.4127628 -0.66149104 2.3333333
-3.9932632 -1.0825907 -0.65675527 2
-3.7336581 -0.49165061 -0.65500444 3.25
-3.6997359 -0.1519828 -0.63189131 3.5
-3.6911297 -2.457747 -0.16991374 6.5
-3.8341985 -2.2955973 -0.16425338 8.4120455
-3.913559 -1.9399807 -0.19904493 9
-3.9143035 -1.3889774 -0.34020764 8.0362501
-3.950345 -1.0848236 -0.19267821 8.8345003
-3.7393601 -0.63255936 -0.1654712 7.0998702
-3.8045321 -0.24593306 -0.25890282 6
-3.7823629 1.0412458 -0.36006382 6
-3.6684456 -2.4439306 0.21799949 10.4
-3.8075261 -2.2370603 0.15425585 10.251196
-3.9588418 -1.9379133 0.17279087 11.166667
-3.8441715 -1.4345509 0.21142229 11.322
-3.7816124 -1.0694941 0.1746541 10.403342
-3.7168076 -0.59848017 0.096572675 8.8182917
-3.8445847 -0.20363365 0.21973793 9.2728539
-3.6512055 0.19274609 0.29259187 9.7076674
-3.8605356 1.029624 0.22226 9.4090509
-3.8356168 1.3545257 0.24105041 9.1992102
-3.683558 1.6720036 0.29828408 9.5
-3.6762428 -2.4347632 0.57707012 12.208333
-3.814055 -2.2160602 0.65007293 12.645666
-3.9788699 -1.143586 0.66556668 13.080501
-3.6767278 -0.47280085 0.63248801 11.77625
-3.92766 -0.16021152 0.47154492 10.826667
-3.6901381 0.31401694 0.45668766 10.802623
-3.8271294 0.72596359 0.54983914 11.222444
-3.8182895 1.0433252 0.53422421 10.986694
-3.798945 1.3621376 0.46233818 10.457206
-3.6613398 1.6918849 0.57595158 11.12965
-3.6288414 -2.4425166 0.95006663 13.5
-3.7961628 -2.1947181 0.95683318 13.763844
-3.8839402 -1.8958615 1.1521162 14.108625
-3.640142 -0.10917751 0.86801022 14.098498
-3.968086 0.94855779 1.1692195 13
-3.702601 1.6736884 0.88711554 12
-3.9800479 0.77223384 1.3566519 14
-3.9085324 1.0318872 1.2827848 13.858666
-3.6951191 1.3048038 1.3349944 14.027458
-3.4247236 -2.5553691 -0.91691512 2
-3.2251794 -2.1532881 -1.0559241 1
-3.5043187 -1.8892802 -1.063656 1
-3.2660823 -1.2464978 -1.0530472 0
-3.4948256 -1.0269591 -1.0017341 0.5
-3.4612138 -0.66484821 -0.87421876 1.3333334
-3.4450722 -0.34559351 -0.91216218 1.3333334
-3.592407 0.054117046 -0.80717951 3
-3.3762913 -2.6171794 -0.54999417 3.7595236
-3.5408428 -0.13882188 -0.46589634 4.6666665
-3.3296659 0.17287183 -0.59754407 3.5535712
-3.2616184 0.64101505 -0.72139937 3
-3.2425663 1.4115367 -0.66555691 4
-3.2419519 2.2604103 -0.55001414 3.7857144
-3.4006436 -2.5585232 -0.14851597 7.8376336
-3.5342841 -0.56178463 -0.12631392 8.354167
-3.4332371 -0.16755478 -0.2015966 6.25
-3.266623 0.11704709 -0.20084274 6.2769232
-3.310477 1.0735248 -0.00042544937 8.0555
-3.4945874 1.3648838 -0.0025029716 8.0544996
-3.3942428 -2.5626609 0.15514144 10.226047
-3.5223813 -2.3029423 0.10225287 8.333333
-3.4567699 -0.71864331 0.2287256 11.2815
-3.5170932 -0.091516845 0.043740336 8.1031837
-3.3722496 0.14378817 0.1872607 9.1431732
-3.4308245 0.68697464 0.27629173 10.056271
-3.4911659 0.99200851 0.036398426 8.0253334
-3.2892127 1.4284039 0.041581821 8.0389996
-3.4540739 1.8571569 0.26755565 9.6425629
-3.2008989 2.1574476 0.27282965 10.01725
-3.4150691 -2.5539646 0.60558027 12.210087
-3.4661276 -2.2874248 0.66334683 12.458195
-3.450866 -0.2024249 0.66780269 12.347271
-3.2906239 0.18724781 0.58375484 11.941732
-3.4331589 0.68147725 0.52486873 11.733401
-3.4744654 0.98964292 0.55823845 11.815401
-3.5373094 1.4313645 0.57699847 11.438068
-3.3451998 1.8119549 0.52915555 11.339557
-3.3500471 2.2519879 0.61210662 11.908024
-3.3032808 2.4785688 0.45422342 11.2118
-3.3880975 -2.5851133 0.98069412 13.463187
-3.4302351 -2.2819207 1.1297618 13.828821
-3.5791585 -0.33516866 0.9049449 13.556749
-3.2941267 0.23448989 0.99027181 13.19295
-3.3508241 0.61786997 1.0445459 13.353308
-3.2529922 2.131449 1.1083735 13.01725
-3.4685068 0.48097748 1.2083081 14.032625
-3.2956512 2.1115522 1.3080102 14.0505
-3.0352354 -2.5627565 -0.92024422 0.53030306
-3.0995009 -2.2458594 -1.0502474 1
-2.8504202 -1.7108867 -1.0480289 0
-3.056025 -1.5073934 -1.0523329 0
-3.1056476 -0.40508389 -1.013901 0
-2.8909147 -0.077044114 -0.9768393 0.92500001
-2.8860993 0.16604939 -0.88262701 1.3888888
-2.8778265 0.57035559 -0.82941669 1.7916666
-2.852176 1.5305824 -0.81410062 3
-2.9954996 -2.5882359 -0.58712035 2.8690474
-3.0624678 -0.1093102 -0.76125079 1.25
-3.0915306 0.28794959 -0.68980867 2.9000001
-3.0946665 0.57326519 -0.47921664 4.5416665
-3.0951777 1.3885657 -0.66551465 4
-3.0787921 2.2963495 -0.54144078 6
-2.9722264 2.4877396 -0.53078347 6
-2.9559443 -2.5806024 -0.20041807 6.1875
-3.1266317 0.32268259 -0.1734916 6.665
-3.0033491 0.55729467 -0.19599617 6.4545455
-2.9258919 1.4244832 -0.0035574117 8.0524998
-2.9324977 -2.5340014 0.20337954 9.3565979
-2.8825729 -2.3566878 0.19750951 9.0822659
-3.1618986 0.2863175 0.11985498 8.6551905
-3.0375953 0.49309358 0.075441144 8.3828726
-3.1774406 0.91126758 0.059223231 8.2987499
-3.0910804 1.3298837 0.055032231 8.2384796
-3.192142 2.3158016 0.31195098 10.005751
-3.0215909 2.7115073 0.3562724 10.6235
-2.9502082 2.8609765 0.30050254 9.6022501
-2.9288464 -2.494343 0.60662723 12.105374
-2.8680711 -2.3281209 0.5493136 11.6313
-3.1454575 0.25482136 0.58086771 11.751875
-2.996115 0.62031716 0.61040944 12.018516
-2.833905 0.82812655 0.63107657 12.041
-3.1645262 2.047713 0.61367941 12.829124
-2.9813764 2.5723958 0.55428505 11.50604
-3.0334103 2.8841386 0.584445 11.3054
-2.9685032 -2.5213778 0.9939062 13.582776
-2.9898129 -2.3106806 1.0173607 13.640625
-3.1799321 0.39447889 1.034902 13.725833
-3.0973122 0.53939569 0.99565005 13.440662
-2.8790734 0.96601462 0.97644961 13.199084
-3.0701973 1.4404206 0.88314521 12.355
-3.0537109 1.6445537 1.1923206 14.01825
-3.0695095 2.3874826 1.1445802 13.01575
-3.0584869 2.5694513 1.058632 13.368332
-2.9177258 1.7749263 1.2047172 14.01725
-2.8491116 2.5432851 1.348188 14.032499
-2.7410979 -1.7935585 -1.0430416 0
-2.787699 -0.057563584 -1.109177 0
-2.7367673 0.19279471 -0.98019183 0.72222221
-2.528826 0.47483483 -0.90110195 0.83333331
-2.5756326 0.98224962 -0.95703393 1.0833334
-2.6587822 -2.0604978 -0.75551772 1
-2.7381542 0.6870712 -0.66713047 3.325
-2.6089852 0.98862571 -0.75529134 2.5277779
-2.6316929 1.4397893 -0.67238289 5
-2.6544838 1.7141073 -0.68139595 5
-2.7482097 2.7177064 -0.71955073 5
-2.6515489 2.8610535 -0.71253806 5
-2.6033549 3.4432948 -0.55709779 3.8030305
-2.4634762 -2.8098543 -0.055230379 7
-2.5267758 -2.6739655 -0.13453989 8.8194551
-2.6221664 0.93337357 -0.16210501 6.7775908
-2.4451547 -2.8234773 0.2337838 9.4981394
-2.5876057 -2.6737189 0.22896501 10.37006
-2.743376 0.9186576 0.017199559 8.0084286
-2.7106178 1.804001 0.14601184 9.5167503
-2.6423352 2.2877252 0.27837697 9.8774586
-2.4943941 2.4196184 0.26125631 9.333333
-2.4920278 3.4844406 0.38724166 10.0425
-2.4572134 3.7609813 0.39683017 11.026751
-2.4548604 -2.8039901 0.54960358 11.805125
-2.5931826 -2.6591401 0.54350483 12.416151
-2.6961555 1.0238099 0.60679531 12.022889
-2.5881605 1.3131213 0.60336298 11.990631
-2.7198007 2.3253376 0.64546865 12.0015
-2.5787065 2.5524857 0.51649106 11.003833
-2.5964458 2.9843867 0.59168088 11.419933
-2.5779366 3.3800328 0.47635716 10.556754
-2.4954207 3.6685321 0.45205641 10.021126
-2.4465363 -2.8259201 1.0095953 13.718445
-2.5969515 -2.651782 0.95426941 13.621756
-2.7029388 1.0505213 0.93149579 13.368442
-2.6087744 1.2732137 0.92263812 13.326413
-2.5462315 1.6305988 0.93399465 13.027667
-2.4849515 2.0793955 1.1306417 13.5145
-2.790169 2.7683899 1.3557563 14.019251
-2.5851955 2.9909432 1.2969424 13.523156
-2.5091202 3.2111902 1.3876654 14.0165
-2.440711 3.7591946 1.283545 13.020625
-2.1045973 1.2808776 -1.2504853 1
-2.3523195 0.70438653 -1.0543303 0
-2.2407882 1.0736705 -1.0529994 1.75
-2.0575523 1.2916483 -1.0431495 2.2142859
-2.0321791 1.8896807 -0.99568528 2.8
-2.2081356 2.0837095 -0.87965435 2.3600001
-2.1658626 4.1876674 -0.89286488 3.75
-2.0365746 4.4071312 -0.80070603 4
-2.2827258 1.0570076 -0.77731746 4
-2.1343596 1.3666475 -0.71234572 4.1190476
-2.0399082 1.8394847 -0.52461743 5.5
-2.1204691 2.0372508 -0.73140943 2.5
-2.0757411 3.0911589 -0.67086899 4
-2.0232515 3.2249281 -0.74324089 4
-2.2981069 3.7976687 -0.67869735 5
-2.1899207 4.161479 -0.66667724 4.75
-2.1609018 -2.8852241 -0.1388322 8.833333
-2.3617873 -2.7488849 -0.1462853 9.5
-2.2185378 1.4840636 -0.14843084 7.8666949
-2.073966 1.7572492 -0.17759378 7.5666666
-2.0524805 2.141258 -0.17124437 6.8361664
-2.1917639 -2.929719 0.22968073 10.032609
-2.3675835 -2.7731485 0.14647752 10.833333
-2.39644 1.2771794 0.39742684 11.303144
-2.0811024 1.813531 0.23999071 10
-2.2106879 2.2706537 0.10950664 8.7612648
-2.2324216 2.5473747 0.22353977 9.3595152
-2.1619551 3.0498135 0.1920698 9.0160999
-2.1528244 3.2372706 0.19853885 9.0345001
-2.2943127 3.7409883 0.2184651 9.0216255
-2.1125071 4.1590872 0.25949147 9.0131874
-2.2058091 -2.9315541 0.61628962 11.888895
-2.3942053 -2.6873643 0.78691298 12.666667
-2.2603803 1.5621407 0.4808479 11.587072
-2.0805264 1.8483102 0.53818178 11.69525
-2.1599898 2.1768675 0.69060278 12.653861
-2.1803136 2.5836525 0.57900453 11.513917
-2.2577465 2.9815972 0.61543143 11.730446
-2.1730838 3.3347538 0.59201568 11.454778
-2.1850331 3.8326397 0.53721517 10.735964
-2.1462941 4.1696086 0.48085475 10.451867
-2.1798325 -2.9437938 0.9539538 13.739453
-2.3252962 1.3680331 1.0385715 14.0165
-2.1595252 1.8289788 1.0229613 13.437239
-2.2526829 2.2173305 0.94772691 13.608639
-2.1841457 2.5991173 1.0687783 13.338875
-2.0127492 2.8987296 1.0706556 13.021626
-2.3251896 3.8409956 1.1827857 13.00925
-2.3358612 2.3029218 1.2310054 13.883432
-2.3639371 3.1125047 1.3680238 14.0285
-2.2623587 3.3085456 1.3337449 13.620951
-2.2036731 3.9308169 1.3052925 13.3515
-2.0377126 4.2067308 1.2717469 13.03875
-1.7233112 0.88239413 -1.2628049 0
-1.862812 1.5661979 -1.2364503 1
-1.9723146 1.3642231 -0.90587682 3
-1.721952 1.888877 -1.0532042 2.1666667
-1.7929598 2.1839676 -0.94136405 2.3333335
-1.7155353 2.6571205 -0.96833539 1.8
-1.7125627 3.0403802 -0.86831748 3.2
-1.7057115 3.4425499 -0.93156648 3
-1.649287 3.9291651 -1.0029043 3
-1.827028 4.0730572 -0.92692274 3.6666667
-1.7876195 4.5150857 -0.85169399 4
-1.7080512 1.9038702 -0.55265278 5.125
-1.7770779 2.1480529 -0.65967852 3.2857144
-1.781229 2.5496912 -0.68185663 3.8571429
-1.9005183 3.332067 -0.69417459 4
-1.6157136 3.9692972 -0.74644578 4
-1.8635329 4.2094798 -0.63685179 2.6388888
-1.8553993 4.6813393 -0.53167832 4.6666665
-1.7090467 4.9236293 -0.58271283 4.125
-1.6242394 -3.225405 -0.19819702 5.6750002
-1.7462672 -3.0866315 -0.15513062 7.4333329
-1.7168726 -1.7738914 -0.18331917 6
-1.8948252 2.3656693 -0.22332139 6.375
-1.8291594 2.50804 -0.093869492 7.4270835
-1.665778 2.9070151 -0.018318441 8.0089998
-1.9791563 4.479651 -0.39450496 6
-1.6430379 5.0093675 -0.1948816 7
-1.7341449 -3.2252192 0.2141407 9.2989902
-1.8562995 -3.0817196 0.1925112 10.091943
-1.9103798 2.5988317 0.058421843 8.1948004
-1.7947097 2.9932363 0.10716452 8.3734751
-1.6993186 3.4236419 0.27201524 9.1081505
-1.9000076 4.2659745 0.2938129 9.520916
-1.8752908 4.7499967 0.37433547 10.0205
-1.6700372 4.9766889 0.22716182 8.8202496
-1.7205342 -3.2521143 0.5899924 12.302376
-1.8942513 -3.0968974 0.57721275 12.189186
-1.8888133 2.2416346 0.5781073 11.728724
-1.791217 2.6382589 0.67855555 12.281045
-1.8548274 3.0595231 0.68856019 12.038786
-1.8268371 3.4622867 0.58544052 11.919792
-1.7951938 3.8259828 0.66217148 11.154715
-1.8692226 4.1874108 0.54844642 10.621547
-1.8712579 4.6292224 0.54318684 10.534017
-1.6674255 4.9972048 0.59710616 10.400013
-1.7498976 -3.2442803 0.93866748 13.93425
-1.8965719 -3.0846679 0.91410398 13.9
-1.9350536 2.382298 0.84127164 13.17025
-1.9342688 2.5306056 0.87817246 13.747928
-1.8991857 2.9060354 1.0258956 13.04175
-1.7549444 3.3199093 1.0690141 13.009666
-1.6587844 5.0372057 1.0384682 12.523071
-1.8885399 2.2556922 1.2187052 14.01125
-1.7278465 2.5161064 1.2772498 14.00975
-1.8308504 3.5251043 1.3444769 13.618601
-1.6825343 3.6801877 1.3706279 13.512314
-1.7920793 4.7810278 1.4814495 14.162251
-1.7025057 4.9865141 1.4239957 13.31457
-1.8210968 4.7210073 1.6169963 14.0095
-1.6389164 5.015233 1.6508421 14
-1.5012268 1.0753448 -1.2401507 0
-1.283958 1.2181671 -1.2150153 0
-1.2858195 -3.6991048 -0.85732526 0
-1.3180531 -3.4202569 -0.88970792 0.16666667
-1.3134966 1.9666423 -1.1556253 0.66666669
-1.402137 2.3013773 -0.97866362 1
-1.3496439 2.5319541 -0.91379994 1.8
-1.4796883 3.027499 -0.90086991 2.8
-1.4424225 3.4099083 -0.84972924 2.75
-1.28036 3.9056604 -0.88024193 0
-1.2573056 4.0640731 -0.99318039 3
-1.2004733 -3.6230934 -0.43393964 3.5
-1.3660275 -3.3942449 -0.5910781 2.4932411
-1.5221697 -3.1413956 -0.54006881 3.0714285
-1.4973996 1.7796234 -0.74040645 2
-1.4355772 2.2295263 -0.55644089 4.125
-1.4611441 3.505553 -0.75993931 0.66666669
-1.3294852 3.9343565 -0.58835804 2.767647
-1.4542612 4.1491551 -0.68603152 2
-1.2323301 4.6539931 -0.62248397 5
-1.5070163 5.0095186 -0.72676194 3
-1.2161369 -3.6077003 -0.034743551 7
-1.3699672 -3.3999069 -0.17653629 7.300427
-1.564136 -3.1839137 -0.38685003 4
-1.5191151 2.2780328 -0.29582751 6
-1.5133946 3.0061865 -0.2017962 6.6174169
-1.3288006 3.3286057 -0.15248874 7.0576115
-1.2954047 3.9192488 -0.25621933 5.2903748
-1.5087698 4.1160007 -0.3943634 5
-1.2071103 4.6852999 -0.23406082 5.6666665
-1.4733871 5.0587015 -0.050480098 7.75
-1.2123414 5.651968 -0.098300867 7.5
-1.4019918 -3.4063113 0.20886017 10.271687
-1.3467966 -2.5444303 0.020656871 8.2498751
-1.5080121 3.026104 0.040689286 8.1543131
-1.3855559 3.3858018 0.12929802 8.5326586
-1.3820674 3.7531388 0.32736039 9.3851871
-1.4410616 5.1023607 0.18616207 8.6140757
-1.5171659 5.2081685 0.268242 9.25
-1.2254162 5.6424069 0.16528215 8.5013752
-1.3839583 -3.4291549 0.56576371 12.525347
-1.5171229 2.6814849 0.60520136 11.855373
-1.4993607 2.9788623 0.63717341 11.574004
-1.3659129 3.4047039 0.66034311 11.603807
-1.344141 3.7549281 0.63889813 11.52387
-1.422011 4.1419477 0.66886693 10.9767
-1.4221936 5.1064205 0.56454915 10.759851
-1.4200588 5.332746 0.67326987 10.735419
-1.2492286 5.6538548 0.68876296 10.62055
-1.3622454 -3.4632592 0.94771183 13.759436
-1.4758402 3.1714015 0.95130801 13.459419
-1.3761436 3.4158573 1.0100698 13.060863
-1.2349302 3.6080365 1.101813 13
-1.5513908 5.0562115 0.94443649 12.0175
-1.4710565 5.3521595 0.99974626 12.225875
-1.2662964 5.6908855 1.0216614 12.305201
-1.5049174 2.8938642 1.368926 14.007751
-1.3917308 3.3316145 1.4868584 14.002
-1.5203722 3.7971177 1.3208798 13.995937
-1.3790207 4.0948119 1.5322305 14.1755
-1.4605243 5.0777345 1.464385 13.4086
-1.3837936 5.422122 1.298419 13.014288
-1.2915726 5.6474051 1.2763803 13.524625
-1.2473103 4.0431604 1.6912833 14.0045
-1.5680425 5.0978937 1.6803737 14
-1.4484483 5.3519716 1.7330123 14.127375
-1.275273 5.7127275 1.7806135 14.338208
-1.1441423 1.3213909 -1.2037473 0
-1.0883777 -3.6824539 -0.89459342 0.11111111
-1.1990327 -3.5561848 -0.86367309 1
-1.1199489 -2.9922967 -0.85770679 0
-0.89709967 1.4454176 -1.1770152 0
-0.91911942 2.1888394 -1.0708015 0.72222221
-1.1317861 2.5492644 -0.98506337 1
-1.0321418 3.7768657 -0.81244755 2
-1.1717055 4.1860976 -0.82077557 1.75
-1.0752654 4.6768284 -0.89952105 0.33333334
-1.0580826 5.0966964 -0.94878697 0.66666669
-0.90569961 5.3293829 -0.94632065 1.3333334
-1.0257888 -3.6930122 -0.6132068 2.2542517
-0.87632686 -2.9705498 -0.72618651 0
-1.0745088 -2.6576278 -0.73749363 0
-1.1530104 -2.3860676 -0.73248404 0
-0.88865393 2.2720048 -0.78181428 2
-1.1206294 3.7063332 -0.63199145 3
-1.1501023 4.1785994 -0.58631432 2.8333333
-1.1737413 4.7254586 -0.58112615 3.7
-1.1030403 5.0210953 -0.58608019 4.2777781
-0.90542561 5.3833828 -0.56305349 4.9047623
-0.92167616 -3.6958218 -0.13754359 8.2354412
-1.1194714 -3.5525975 -0.12944004 8.7222223
-1.1673763 3.5851178 -0.20081583 6.6666665
-1.1255227 3.6651511 -0.23745421 6.375
-1.1795911 4.6928744 -0.13259378 6.25
-1.1228218 4.9412103 -0.2014797 6.3846154
-0.92346358 5.3270974 -0.18739042 6.6666665
-0.97639936 5.7787247 -0.17568761 6.9814816
-0.93181103 -3.7015057 0.15578337 9.9964104
-1.1309811 -3.5649152 0.20059228 10.861111
-1.1709569 3.5383501 0.18252602 8.666666
-1.1439716 3.6787481 0.24281406 9.1036739
-1.1429001 5.0210538 0.17106405 8.6588116
-0.95094889 5.3271904 0.20567159 8.7503099
-0.9527337 5.8124957 0.19865824 8.6366348
-0.82518864 6.1236215 0.24844082 9
-0.95069635 -3.7089987 0.57392073 12.672807
-1.1366698 -3.5733385 0.55350554 12.5
-1.1914338 3.4954455 0.60122323 11.336216
-1.1098009 3.7052827 0.60286063 11.118365
-1.1249063 5.0490532 0.56995726 10.89992
-0.92313951 5.362988 0.64637977 10.630529
-0.92877507 5.8788319 0.58173156 10.438121
-1.0990562 6.0179968 0.76357621 11
-0.91787428 -3.7243266 0.91262561 13.794079
-1.138353 -3.5891635 0.82957745 14
-1.1358107 3.5950546 0.89413935 12
-1.1485952 3.6877244 1.0717417 13.078
-1.0106173 5.9317908 0.98005718 11.799029
-0.97754931 6.0983562 0.95464343 11.686636
-1.1925714 3.5450673 1.2972491 14.021749
-1.0874643 3.8037901 1.3258092 13.884151
-1.1846263 4.0143309 1.5232986 14.174375
-1.0341145 5.7797723 1.3058363 13.301821
-0.97779703 6.1010551 1.3040539 13.185453
-0.84505999 3.8572984 1.6296602 14.003
-1.1552783 5.5955095 1.7343454 15.03275
-1.0394572 5.9327521 1.7433776 14.4073
-0.94665486 6.0773659 1.8310107 15.052188
-0.9853217 5.2755799 2.0555961 15.002
-0.66989344 1.5757483 -1.1608257 0
-0.44641772 1.946579 -0.89134568 0.5
-0.52276647 2.1533639 -0.87245482 0
-0.46240225 3.1128078 -1.010548 0
-0.56076062 4.0709605 -1.0373526 0.5
-0.57001466 4.5540724 -0.98476177 1.1666666
-0.6768477 5.0078111 -0.94822788 1
-0.66691583 5.4571061 -0.95670277 1
-0.68187028 5.7155967 -0.93089074 1.5
-0.53282887 6.1481361 -0.95173597 2
-0.4424217 -4.022017 -0.41492274 4.5
-0.58991396 -3.8555081 -0.41411445 4.3666668
-0.56534153 -3.418463 -0.4717555 3
-0.46471983 -3.0234368 -0.49257705 4
-0.61243951 2.2214501 -0.62713838 2.4444444
-0.51344866 2.660773 -0.55901206 3
-0.77649117 5.5730867 -0.58198762 4.1666665
-0.71769834 5.6889424 -0.60287952 4.409091
-0.61793864 6.1660552 -0.58492172 5.0454545
-0.45715106 -4.0438519 -0.22368839 5.333333
-0.60306722 -3.9143164 -0.1866446 7.0885415
-0.79168439 5.5570087 -0.34750685 5
-0.73061585 5.7253332 -0.14245449 6.8303609
-0.58361995 6.134233 -0.20417832 6.6916671
-0.44908625 -4.0176091 0.2048288 10.055555
-0.61623406 -3.9162438 0.1836732 10.524361
-0.73505849 5.7582536 0.18977162 8.5903854
-0.59512585 6.1270194 0.21112604 8.6515245
-0.47566772 -4.0419097 0.67210841 13.113726
-0.66123915 -3.8910964 0.61341208 12.426559
-0.69837207 5.7753162 0.59198791 10.346729
-0.58838427 6.1399913 0.63094866 10.465278
-0.43631727 -4.0496306 0.98218483 13.75
-0.60373664 -3.9354422 0.96551818 13.567472
-0.7019636 5.8082614 0.90858561 11.074785
-0.62036198 6.133604 0.95537746 11.827034
-0.56319761 -3.9589233 1.3398235 14
-0.77926272 5.9762983 1.3177687 13
-0.60962194 6.1540766 1.354403 13.294621
-0.59160143 6.1684017 1.8180125 14.777657
-0.19732033 -2.7377911 -0.955199 0.33333334
-0.060361106 1.92373 -1.0121793 0.1875
-0.16236928 2.1597073 -1.0166973 0.5
-0.14866155 3.8532898 -1.0797342 1
-0.242434 4.0436664 -1.0561429 0.5
-0.13906127 4.6153655 -1.0192236 1.0666667
-0.29655421 4.9118857 -1.0534676 1.375
-0.21357109 5.4796805 -0.99761122 1.8
-0.18308531 5.8607893 -0.94055051 2.8518517
-0.26835608 6.0685344 -0.96607196 2.8
-0.23421252 -4.1778102 -0.53219521 3.1642857
-0.21305294 -3.794765 -0.6383546 1
-0.35828277 -2.876544 -0.59381223 3.125
-0.21445012 -2.7587619 -0.62361282 2.75
-0.36158007 -1.8394699 -0.6522646 1
-0.12386224 1.8953716 -0.67134339 1.9039217
-0.13146442 2.1298137 -0.61164337 3.0583332
-0.21401638 2.5704341 -0.48771203 3.9666667
-0.040166363 2.9834445 -0.60236281 3.5
-0.091573507 3.2596149 -0.66483593 3
-0.17000772 5.9033999 -0.55380464 5.2552085
-0.19797285 6.0612516 -0.63182068 4.430769
-0.21186449 -4.1808457 -0.18937051 7.4289856
-0.13602611 5.9085116 -0.17281036 6.7976193
-0.37259296 6.0529571 -0.12713753 7
-0.23605078 -4.1764951 0.21321481 10.69499
-0.3593241 -3.9862912 0.39021018 11.08625
-0.15742138 5.9002647 0.20084751 8.5980387
-0.20275667 6.0370722 0.16173925 8.1000004
-0.19641817 -4.1957669 0.62929857 12.109784
-0.087541997 5.9007263 0.61581039 10.453704
-0.2605758 6.0774794 0.55387312 9.8703699
-0.11950226 -4.2641068 0.90076476 13.766329
-0.12492752 5.9288845 1.0063018 12.178231
-0.17687309 6.1671801 0.96598363 10.915245
-0.18705478 -4.1953087 1.3002093 13.433333
-0.10828447 5.9252453 1.3468564 13.345636
-0.22700174 6.0937977 1.3215625 12.724833
-0.1407921 5.8681831 1.7202861 14.166875
-0.29710963 6.1198263 1.7503202 14.21594
0.31759766 -4.418674 -0.81617373 1.5
0.22864211 -4.2721734 -0.83050078 0.60000002
0.37144303 -3.2616584 -0.98085082 1
0.11081493 -2.9791653 -0.88872182 1.1666666
0.33242163 -2.6932585 -0.99094492 0
0.34249735 1.5638601 -0.95522541 0.2
0.21081983 1.7714345 -1.0024672 0.46153846
0.0043482343 2.0175886 -0.95742387 1
0.18390813 2.5560777 -1.0400306 1
0.18371044 4.4884009 -1.0313144 1.5714285
0.095528416 4.8181267 -1.0561293 2
0.17902189 5.383594 -0.9834227 2.2380953
0.13734101 5.7849259 -0.87857771 2.5
0.30619249 -4.4992995 -0.53745246 3.175
0.097436659 -4.2926936 -0.61900347 2.2777779
0.1029079 -2.9588408 -0.60314196 3.095238
0.29146361 1.4565418 -0.59919053 3.1551723
0.20658535 1.7331562 -0.58346748 3.4000001
0.21300101 2.132082 -0.56501675 3.4285715
0.29202256 2.5858364 -0.51992536 3.75
0.078921624 2.9253321 -0.58465862 3.6666665
0.14786603 3.4598374 -0.68662888 3
0.35807803 5.3868365 -0.53955668 4.5
0.19596328 5.7760563 -0.55496877 4.7065473
0.22072102 6.1569686 -0.53419155 4.623188
0.23714961 -4.4890704 -0.18561785 7.833333
0.12555812 -4.3592696 -0.14764099 6.3722224
0.26530567 1.5000005 -0.22547472 5.8541665
0.22927314 1.6668115 -0.22527303 6.125
0.049127847 2.6401744 -0.3695271 5
0.16054671 3.0008113 -0.37626582 4
0.38606492 5.3531132 -0.31260568 5.75
0.18242931 5.7564092 -0.16216579 6.666667
0.16375229 6.1301804 -0.1735401 6
0.25400606 -4.5007582 0.19466868 10.220289
0.072482049 -4.3631678 0.17078364 9.8000002
0.32420459 1.4586715 0.24204361 9.7739735
0.24420723 1.6525973 0.095703714 8.4982662
0.18876195 5.8468723 0.188829 8.5076666
0.34870574 6.1125879 0.2594988 9.0264997
0.19947787 -4.4793911 0.64469361 12.158551
0.11263487 -4.3797016 0.56583017 11.574075
0.33705184 1.4613047 0.45563176 11.375
0.18975367 5.9336028 0.59303123 10.227532
0.17989855 6.0289307 0.56470543 9.9681606
0.20344613 -4.4850774 0.93963677 13.733788
0.052075412 -4.3527894 0.94650072 13.715563
0.17148411 5.9106307 0.97523475 11.973119
0.14580303 6.1082506 1.0404527 11.111111
0.37748551 -4.5345025 1.3159595 13
0.13835916 -4.3865595 1.372831 13.5
0.17433877 5.9352698 1.4010206 13.278334
0.16126926 6.054378 1.3880143 12.843721
0.34811309 5.5347071 1.6574904 14.179
0.18753129 5.8549218 1.7981129 14.023364
0.2446501 6.0886064 1.6842868 12.857142
0.13384612 5.7742109 2.1618195 15.172282
0.6270082 -4.4452314 -0.93747634 0.33333334
0.54490685 -4.1902976 -0.91465801 1
0.72108006 -3.2576263 -0.98687142 1
0.74870569 -2.9709649 -1.0330708 1
0.49809325 -2.5690954 -1.0096624 0
0.63019997 -2.3771737 -1.0321366 0
0.73517537 0.77387398 -0.96252406 0.25
0.6024608 1.0237708 -0.98608387 0.76847303
0.57507372 1.3701416 -0.94014537 1.3241936
0.45619258 1.6174439 -1.0855163 0
0.66766346 2.2686675 -1.0793254 0.90909094
0.67500168 5.1080413 -0.95740944 3
0.57918829 5.4617157 -0.9625814 2.625
0.44831383 5.6574092 -1.0083237 3
0.56275845 -4.6372371 -0.56265432 3.4688888
0.68343383 -4.2881932 -0.71720588 0.8611111
0.57838702 -3.7256515 -0.77952534 0
0.64220715 0.77768356 -0.53062326 2.8666668
0.58962131 1.0064117 -0.60416621 3.224797
0.5662812 1.3536012 -0.58670193 3.5438266
0.49134713 2.5952888 -0.53391075 3.5
0.56368601 3.1148121 -0.43672571 4.8333335
0.48423886 3.3686342 -0.57829779 4
0.74680293 5.1879106 -0.49053994 4
0.59455395 5.3643947 -0.59110689 4.3388886
0.43845162 5.6777749 -0.59382904 4.5500002
0.60237437 -4.6520925 -0.20254022 5.883883
0.69215274 0.77528971 -0.33657035 5
0.59093285 0.96196914 -0.30026796 5.4642859
0.50352496 1.293136 -0.17543833 6.4989247
0.45815167 2.6554468 -0.38352641 4.8571429
0.7466535 3.1759067 -0.25835007 5
0.66104436 3.3437316 -0.26596695 5.7142859
0.69967449 5.1665125 -0.20375973 7
0.57857329 5.3600011 -0.19853069 6.1531243
0.44266641 5.6459956 -0.19202453 6.5
0.72741848 -4.8541684 0.23673198 10.809524
0.57261354 -4.6867046 0.17406058 9.6121206
0.51997352 1.3124626 0.16399252 9.1710196
0.69815284 5.5854521 0.18876964 8.666666
0.56404024 5.6859627 0.16995792 8.4535637
0.68560898 -4.8631177 0.57701361 11.888889
0.58244777 -4.6585817 0.55541945 11.147619
0.40924078 1.4011874 0.46404383 11.15
0.78010231 5.51653 0.66593999 10.75
0.57954592 5.7427588 0.59767538 10.364539
0.79429561 -4.8818254 0.89106441 13
0.56658536 -4.6782155 0.96580303 13.48594
0.76662081 5.5511694 0.97370952 12
0.57780737 5.7140913 1.0033072 12.208509
0.54846931 -4.6393547 1.3495711 13.826096
0.56419533 5.739182 1.3593347 13.388546
0.41723445 6.5065122 1.3479589 13.026
0.60745776 5.4632754 1.6868739 14.038417
0.49901304 5.7373161 1.9050043 13.524232
0.89216846 -4.2000527 -0.91295159 0.41666666
1.0551678 -3.8984039 -0.86099082 0.83333331
1.0896194 -3.3420448 -0.99628931 1.5
0.84434497 -2.9194484 -1.0331 1
1.0544438 -2.6087062 -0.99856085 0.33333334
0.99824339 -2.2486629 -1.0254657 0
1.1889604 -1.9824147 -1.0292951 0
0.90645576 0.36525795 -1.1282152 0
0.93317544 0.65177321 -0.95757186 1.2564101
1.0054653 1.8000221 -1.1040061 0.83333331
0.97978085 2.1716712 -1.0640531 0
0.93282092 5.3243804 -0.98833525 3
0.97391272 -4.9019346 -0.55632222 3.5
0.88869405 -4.6461 -0.55125672 3.0833333
0.92675173 -4.2157779 -0.64076334 2.0119047
1.0800232 -3.8962865 -0.61765563 2.8725491
0.96556997 0.65133464 -0.59324557 4.0505748
0.87816024 1.3562924 -0.63022739 2.6875
0.9625994 3.0230582 -0.43841308 4.9285712
1.1158333 5.171936 -0.48752549 4.6666665
0.96693927 5.3008561 -0.57502472 4.201961
0.98458159 -4.8818893 -0.21507597 5.7649121
0.86183643 -4.6806545 -0.16305956 8.291667
1.0846128 -4.1916518 -0.17976925 7.6666665
1.1094477 -3.8350823 -0.23276632 5.5138888
1.1405449 -2.8829999 -0.078358464 9.1269999
0.94714665 -2.7087131 -0.078615978 9.1274996
0.87584376 0.71319568 -0.19478379 6.6532998
0.94573337 0.99655098 -0.13457176 7.0602999
1.0694178 1.402899 -0.28225255 6
0.90168816 3.0587211 -0.30092928 5.3333335
0.91178375 3.3182249 -0.23480026 6
1.0653948 5.1813207 -0.22205111 6.125
0.94489336 5.2745457 -0.18775171 6.3314815
0.99762583 -4.9176774 0.17608818 9.177084
0.9257443 -4.6399736 0.17159581 10.3
1.19434 -4.1955876 0.36099812 11.5
1.1308628 -2.8673289 0.25459492 11.127167
1.0701777 -2.6183777 0.17434543 10.661734
0.89597684 0.64240301 0.0087904772 8
0.98135215 5.4365339 0.23145397 8.7255802
0.99891186 -4.9140067 0.5587219 11.215167
0.97774875 -4.7087135 0.50741035 11.75
0.99096853 5.4470682 0.60381901 10.52657
0.83830678 5.6233182 0.46665466 9.333334
1.0069718 -4.933403 0.98947012 13.1807
0.97809076 -4.6524067 0.98991752 13.636364
0.84484124 2.2288365 1.1051135 14.163
0.98157346 5.4559236 1.0230721 12.257576
0.80618066 5.6207242 1.1301879 12
1.0846479 -4.9461002 1.307793 13.568556
0.85805452 2.2455072 1.2083555 14.159
0.99711901 5.4843168 1.3923885 13.565976
0.96183115 -4.8788762 1.6579943 14
1.0751729 5.1683474 1.6428174 14
0.92147046 5.2942152 1.6777905 14.003751
1.1483762 5.1249819 2.1379087 15.1675
1.4539409 -3.3378458 -1.0122235 2
1.3409588 -2.9309559 -0.92407286 1.5
1.5344672 -2.5482583 -0.94899791 1.3
1.3987236 -2.2404966 -0.98575336 0.11111111
1.4926186 -1.7996433 -1.0191774 0
1.5605267 -1.1400934 -1.0599269 0
1.5157541 -0.44261613 -1.1100171 0
1.5181955 -0.13038556 -1.1076543 0
1.4875846 0.22646569 -1.1036775 0
1.4853677 0.55082589 -0.99361873 1.5833333
1.4716333 2.164928 -1.0831387 1
1.4879646 2.6023633 -1.0289394 1.6923077
1.4490442 2.8356154 -0.94024777 2.6388888
1.3413106 -3.7003663 -0.58412933 2.7666667
1.3748819 -3.4919202 -0.65591741 2
1.3273072 -2.8591423 -0.6212483 3.3888888
1.4927729 -2.6226525 -0.61256033 3.2666667
1.5607221 2.3755383 -0.69053465 1.5
1.528787 2.706625 -0.55340624 4.0833335
1.586481 2.8246834 -0.60939169 4.4000001
1.4302919 5.0044765 -0.52408576 4.796875
1.2550988 -4.9368668 -0.10501006 6.8571429
1.3843074 -4.6962557 -0.057601411 7
1.3641084 -3.6867683 -0.16382258 6.8750005
1.3381771 -3.5785947 -0.24193668 5.9333334
1.3265302 -2.8630223 -0.24142121 5.791667
1.472261 -2.638396 -0.12971441 6.4583335
1.3227948 1.1696658 -0.24970436 5
1.5185742 1.898881 -0.26306552 5.3333335
1.5346737 2.6800854 -0.20709261 6.1136365
1.3782642 5.02597 -0.20528503 6.4375005
1.2556838 -4.9912724 0.18664172 8.5450974
1.4676012 -4.5918441 0.16454959 8.7180367
1.3002032 -4.284565 0.11899012 9.8249998
1.4241036 -3.8845904 0.28226006 11
1.3744084 -2.848026 0.18815365 8.5952387
1.5011936 -2.6802745 0.17012478 8.9206619
1.3499231 -2.2354095 0.28541133 11.131251
1.5096564 1.9228334 0.20173058 9.6999998
1.5498116 2.7186182 0.05639625 8.0246429
1.5643551 4.7451062 0.29800859 9.3999996
1.433354 5.0108175 0.1952793 8.549365
1.3083111 5.2834387 0.21790858 8.4761906
1.259315 -4.9646425 0.59961939 11.220589
1.466486 -4.5921483 0.58431357 11.127846
1.3474933 -4.334116 0.4947935 11.466667
1.5117475 -3.9846315 0.42010397 11.5
1.3794678 -2.8418818 0.52518225 10.666667
1.4772575 -2.6702414 0.49517071 10.81249
1.5301895 1.9100205 0.62171531 12.347667
1.5499156 2.0118842 0.74737936 13.164
1.5748854 4.7393451 0.61063474 11.00295
1.4565505 5.0063787 0.62134898 10.60124
1.351923 5.2658176 0.60583568 10.435755
1.2751476 -4.9334364 0.97981256 12.966689
1.4557629 -4.5784774 0.98799509 13.154151
1.35874 -4.2037568 0.98126841 13.354167
1.4562097 -3.8928041 0.97025168 13.5
1.5600481 1.9513974 0.83803803 12.156313
1.5411342 2.0076408 0.86502075 14.164
1.4318159 5.0045729 0.97081202 12.111542
1.3165877 5.2761989 0.99869812 12.128026
1.2390438 -4.9096308 1.2871025 13.25
1.438787 -4.5514255 1.3377107 13.583333
1.5570003 -4.3554306 1.4043864 13.75
1.4861716 2.6815462 1.5632629 14.159
1.4206884 5.0494699 1.4178524 13.642936
1.3461984 5.3055162 1.3750072 13.402161
1.2279657 -4.9617424 1.7026452 14
1.4268357 -4.6295991 1.6386963 14
1.4443533 4.9356875 1.7026114 13.64075
1.4859056 5.2283254 1.6233082 13
1.4862636 4.8942862 2.0766938 15.169679
1.70474 -2.931524 -0.96726966 1
1.8546873 -2.4942803 -1.0124755 1
1.8080273 -2.1676927 -0.97103053 0.66666669
1.9105028 -1.7597575 -0.90340352 1
1.8007076 -1.456489 -0.98998475 0.40000001
1.8391708 -1.0294309 -1.0290942 0
1.7776804 -0.55054414 -0.99784517 0
1.8120494 -0.1428991 -1.055494 0.5
1.7248343 0.21872588 -1.0111613 0.5
1.8758147 0.5154869 -0.88263947 2.6666667
1.808767 1.4722874 -0.86825943 0.25
1.7075861 3.0253363 -0.92309958 3
1.8103738 -3.8049281 -0.53655088 5
1.963786 -3.5375009 -0.40852809 6
1.6092144 -2.4612086 -0.62405652 3.25
1.8038346 -2.1481433 -0.61487877 3.2156861
1.9437138 -1.7706777 -0.60676891 3.0454545
1.8020738 -0.09578605 -0.67980951 3
1.7939914 0.26972148 -0.6504693 3.1870372
1.8021104 1.4623749 -0.62379158 2.1333334
1.8541486 1.6985008 -0.62128258 1.7888889
1.7797053 2.3074944 -0.58135021 2.625
1.7121992 2.6291363 -0.50476718 3.65625
1.7464259 3.0264471 -0.63481271 3.2642858
1.9470775 3.3576503 -0.56708711 3.7157893
1.8526343 4.0395751 -0.606718 2
1.6370193 4.8656125 -0.50758636 5.1875
1.6828936 -4.1334443 -0.082425572 6.5714288
1.9214364 -3.7191129 -0.18265831 6.5
1.7469337 -3.4352126 -0.072468646 8.8999996
1.8395269 -3.1499107 -0.18346837 6
1.6311036 -2.4020436 -0.28393042 5
1.7986097 -2.1555946 -0.23340559 5.7192307
1.9369658 -1.7461567 -0.1762764 6.0166664
1.9268954 -0.44816679 -0.30067125 5
1.8180175 0.15037863 -0.2327223 6
1.7428257 1.311011 -0.25887966 5
1.8543192 1.7639167 -0.19075957 6.4453125
1.836486 2.3507605 -0.2014977 5.75
1.7093962 2.5908089 -0.1878565 6.1666665
1.7448521 3.0275471 -0.20997137 6.2129626
1.9158286 3.3245556 -0.20466857 5.5833335
1.9266956 3.9631717 -0.21651939 5
1.8368779 4.0928712 -0.26490805 5.1999998
1.7963623 4.7366495 -0.22503155 6.3000002
1.6840788 4.8524108 -0.20722573 6.2272725
1.6538841 -4.9603109 0.33263212 11.75
1.694521 -4.24753 0.21083604 8.704545
1.8035491 -3.6876187 0.20677333 9.7833328
1.7797903 -3.3839562 0.20759894 10.233334
1.8659941 -2.9766252 0.28022993 9.3042183
1.8045889 -2.5797489 0.23184779 9.0134802
1.8324422 -2.2141929 0.16906078 8.8416576
1.9444714 -1.760416 0.21616332 8.9833336
1.9760184 -1.5637025 0.10813402 8.5
1.8309506 1.7935176 0.21037634 8.9679918
1.8105615 2.3310854 0.24982461 9.375
1.7802752 2.6466322 0.10922313 8.158556
1.7426648 3.0518668 0.10140789 8.0681429
1.9327737 3.3402159 0.11914644 8.0640831
1.8442161 4.6604571 0.19899918 8.6234646
1.7291218 4.8420401 0.1737726 8.1952505
1.6388541 -4.9501324 0.51598954 13.53075
1.6879021 -4.2571659 0.57642913 10.998931
1.7830371 -3.8132873 0.5225088 11.223333
1.8189812 -3.4434438 0.57557428 11.812501
1.9004225 -2.979594 0.56761187 11.577796
1.8375242 -2.583895 0.59876257 11.32603
1.8287001 -2.1727171 0.50015789 10.880306
1.7524107 1.8269482 0.63555628 11.553
1.7332768 2.2252095 0.70104373 12.219958
1.9490265 2.5586536 0.65788716 11.830667
1.8130168 4.6038051 0.59497458 10.577224
1.663401 4.9052343 0.56421143 10.375
1.6054108 -4.4355412 0.85044414 13
1.6853442 -4.2435727 0.9461689 13.143632
1.7517713 -3.7523377 0.97091848 12.940959
1.7942622 -3.3264172 1.0020705 13.513334
1.91824 -3.0701797 1.0232775 13.541667
1.7340266 1.8533167 0.94639027 13.114525
1.723377 2.213659 0.92503107 12.770295
1.9275026 2.5384426 0.97916943 12.867875
1.804719 4.6831865 0.9535014 11.727487
1.6889729 4.8829436 1.0164384 12.00325
1.705072 -4.183722 1.377238 13.416667
1.8951728 -3.8447826 1.3409849 13.583333
1.9960227 -3.5915015 1.3032194 14
1.857794 4.7300568 1.3632512 13.343513
1.7655401 4.8434772 1.3601785 12.977278
1.6056637 3.0281458 1.667134 14.16
1.878034 3.3727331 1.7437831 14.160299
1.9056137 3.7601991 1.736881 14.17
1.9171317 4.7156434 1.8342502 14.299301
1.7301705 4.9652238 1.6881273 13.333333
1.7709289 4.6906676 2.0887942 15.166219
2.0687718 -2.2036192 -1.00942 1
2.2218454 -1.7838122 -1.0077828 1
2.1720526 -1.3508188 -0.88519847 1.4375
2.2277629 -1.0075563 -1.0023731 1.5
2.218416 -0.59519744 -1.0495114 0.60000002
2.2352922 -0.20382878 -1.0736035 0.75
2.2432575 0.25728229 -1.1016542 1.5
2.190845 0.50633341 -1.0796078 1.4
2.1762466 0.86031163 -1.1060596 2
2.08812 3.9406374 -0.85079587 0.25
2.0602076 -1.6041396 -0.67879766 1.5
2.1655879 -1.4245838 -0.60691935 3.2933335
2.3625808 -1.0795772 -0.52771515 4.3200002
2.3920062 -0.19589297 -0.48422799 2
2.028441 3.4768765 -0.54386586 3.4000001
2.1471043 3.9362411 -0.59333837 3.25
2.1588769 4.0152636 -0.54031032 5
2.2936687 -2.993403 -0.17625594 6
2.0282152 -1.6323271 -0.36099684 4
2.1677492 -1.4028058 -0.17295632 6.2291665
2.3323727 -1.0522865 -0.15419054 6.7333326
2.2424483 -0.47889301 -0.17311473 5
2.0453398 0.31094292 -0.30530751 5
2.0808296 0.41522452 -0.26544833 6
2.1519735 1.0197048 -0.36376217 6
2.2303879 1.4996201 -0.18734969 6.3410258
2.0597532 1.6311172 -0.16015677 6.8714285
2.0269742 3.4932418 -0.19380707 5.7142859
2.1032398 3.9065392 -0.37130246 5
2.1574581 4.1813555 -0.22370103 6.1999998
2.1543996 4.5460148 -0.12125583 6.5888886
2.0277042 -3.6259384 0.20688613 8.833333
2.0048921 -3.5620408 0.33890215 10
2.1519852 -2.5665145 0.18457247 9.4214363
2.0501783 -1.6741153 0.33359218 9.7623053
2.1330853 -1.4838132 0.20250088 8.9889822
2.3253057 -1.0192285 0.12015918 8.4140692
2.2026281 1.5156995 0.16865443 8.7471771
2.0478718 1.6461844 0.18255782 8.8085117
2.0555634 2.7693717 0.24898647 9
2.2104981 3.0094786 0.28855857 9.219305
2.1905136 3.3135917 0.21402834 8.6806459
2.1103764 3.6058712 0.11166525 8
2.207566 4.5584583 0.2291771 8.4844255
2.0290642 -3.6815374 0.62937015 10.888889
2.1100793 -3.2631371 0.79171884 12
2.1148217 -2.8917685 0.6887126 12
2.1953511 -2.6960876 0.59019059 11.473011
2.1720579 1.5157185 0.64060378 11.441103
2.0585589 1.6387186 0.50136065 10.63
2.029979 2.7288935 0.57894558 11.04025
2.1892505 2.9748502 0.6286695 11.365781
2.3837121 3.2983553 0.46278551 10.083334
2.1988382 4.5509419 0.64035553 10.311102
2.0106251 -3.7190356 0.8622756 12
2.1328094 -3.3775048 0.92686796 12.283126
2.231153 -2.9161353 1.0388594 12.992857
2.2500286 -2.7548752 1.0492294 13.384615
2.2073569 1.4968311 0.86116838 12.254805
2.0317056 1.6230252 0.91856468 13.497666
2.0225282 2.7360413 0.93766707 13.04425
2.2158151 2.9682996 0.8982538 12.187179
2.3547363 3.2941341 0.93418676 13
2.2010434 4.5681901 0.98213547 11.741228
2.0093782 4.8081365 1.0745412 11
2.0282917 -3.6949315 1.3477669 13.5
2.1497283 -3.3987913 1.3417839 13.617908
2.2730548 -3.0207505 1.3268757 13.828357
2.3994477 -2.5648291 1.2189438 14
2.093065 3.7293942 1.5780547 14.162125
2.1981463 4.5491519 1.3698316 13.267323
2.0275748 4.806674 1.4572728 12.399999
2.166435 3.8297238 1.8731402 14.591715
2.2280016 4.5659432 1.8695976 13.915562
2.2344928 4.2511106 2.0846715 15.162125
2.628932 -2.4958274 -0.94192082 2
2.4936113 -1.3998367 -1.0201905 1
2.5289333 -0.99164784 -0.93953997 1.5
2.5601382 -0.62054527 -0.93777651 2.1875
2.6858742 -0.17487995 -0.96256346 2.3714287
2.4721954 4.2242866 -0.92007762 0.5
2.7305768 -2.5461981 -0.58663797 4.3499999
2.4752409 -0.97723281 -0.58891386 3.2641027
2.6074133 -0.67694962 -0.63471967 3.8645833
2.66204 -0.21435489 -0.57822406 4.128788
2.7461567 1.1556731 -0.77991951 0
2.6896148 4.3287187 -0.55141741 4.5833335
2.6766696 -2.6171403 -0.13547452 6.6416664
2.4728401 -0.96930921 -0.21336354 5.7390113
2.5968182 -0.59911215 -0.23292257 5.8309526
2.6797919 -0.22762088 -0.22815675 6.1636367
2.7704079 1.1508592 -0.15287285 6.875
2.5611773 1.2772357 -0.21864037 6.522222
2.6535535 4.3203254 -0.18516594 6.3225808
2.4664652 4.4600348 -0.054926727 6.8727269
2.6450782 -2.6180258 0.20045334 8.6264
2.6173129 -2.2692432 0.22144145 9.9124002
2.6976573 -1.7100561 0.35276881 9.6624556
2.5810668 -1.4113894 0.19734117 8.8394852
2.4684584 -0.92016166 0.25500017 9.2388496
2.5444303 -0.70981467 0.14067452 8.252305
2.685998 1.1794416 0.14270589 8.4666662
2.5592437 1.2700615 0.19376703 8.8861666
2.5639384 3.5372624 0.30491722 8.9961672
2.4916735 3.6103418 0.28329664 9.1704998
2.6510258 4.295023 0.15862076 7.9814811
2.4853454 4.4671736 0.21731727 8.0535717
2.4915423 -2.8336384 0.79247338 12
2.6023748 -2.5844347 0.60877728 11.142924
2.577435 -2.261409 0.51743805 11.48
2.6587083 -1.6326964 0.4396008 10.382375
2.5730968 -1.4723611 0.49675608 10.741139
2.6560733 -0.85389805 0.40371454 10.162001
2.6975613 1.1528208 0.60675627 10.983334
2.5877814 1.2487957 0.65457261 11.451369
2.5288482 3.4345028 0.59685701 10.406221
2.611872 3.6270504 0.50520259 10.0895
2.671021 4.3029456 0.58137816 10
2.4946506 4.4631186 0.64139569 9.7690477
2.5101039 -2.8211524 1.1361448 12.82575
2.5639434 -2.6173413 1.0299271 12.737556
2.6201112 -2.1963394 0.84081918 13
2.658721 1.1331086 0.94021589 12.449234
2.5682731 1.2666466 0.99609339 13.242987
2.4144323 3.1368358 0.86538166 11.158
2.5536559 3.4797018 0.91765273 11.904636
2.5389843 3.6440446 0.98053533 12.1705
2.6446085 4.3057766 0.97470295 11.694834
2.4095459 4.478281 1.0553639 11
2.4557757 -2.8473122 1.263755 13.5
2.5651944 -2.6786788 1.3387742 13.948864
2.5899577 -2.289654 1.263175 14
2.7052462 1.5853859 1.2166039 14.148
2.7654245 3.9899516 1.5055336 13.063901
2.6499403 4.2529783 1.3988866 13.474521
2.472162 4.4356823 1.4070553 12.476471
2.7829401 4.1927438 1.7357285 13
2.9427447 -0.81192631 -1.1048207 2
2.8859942 -0.74067944 -0.9815076 2
3.0465467 0.19756675 -1.0663395 2
2.9643219 0.64759535 -1.0974965 2
3.0933914 0.98241907 -0.87109154 3.2
2.8316095 -2.4683907 -0.59624672 4.1666665
2.8102145 -0.74619931 -0.56217062 3.8333333
3.0468848 0.12121701 -0.59167916 1.1
3.0572314 0.96279621 -0.57418799 3.9404762
3.1306281 1.2699502 -0.57577837 2.3888891
2.8299952 -2.459249 -0.080885701 7
2.8228869 -0.089895129 -0.27534094 4.25
3.0226643 0.97434545 -0.17629685 6.4898853
3.0724506 1.2840959 -0.15061106 5.5
2.8239419 -2.4075525 0.2770983 9
3.0503459 0.96689707 0.18359962 8.8130789
2.9274447 4.1503334 0.26137078 8.333334
2.8208065 -2.4346817 0.46154323 10
2.8959308 -2.2308068 0.69576961 11.403149
3.0894773 -1.8674769 0.67125243 11.202685
3.0381415 -1.2451551 0.69546038 11.6305
3.0319941 0.98784781 0.59500581 11.293575
3.1249263 3.2438371 0.66498721 11.681081
2.9997437 4.1282735 0.63023424 9.7586203
2.9307151 -2.1923587 1.0055274 12.584963
3.1588161 -1.8326395 0.98389179 12.25
2.9982851 1.0103273 0.97613221 12.766138
2.9120803 1.246744 1.1437397 13.14975
2.9721031 2.2742534 0.84160131 13.1735
3.0564625 2.9924123 0.9383505 13.162125
3.1256976 3.9772451 1.0458845 11.789625
2.9522638 4.1206431 1.0009242 11.658987
2.9328513 -2.1939452 1.3052874 13.722358
3.1077332 -1.8779742 1.3092618 13.644688
2.9135747 1.0777714 1.2413585 13.144362
2.8339753 1.2878724 1.2364736 13.1525
3.0342753 3.8726404 1.4078538 13.045669
2.8530486 4.1880322 1.2767963 12.557861
2.8658462 4.160398 1.7133824 13.52675
3.1997125 3.1462374 2.0246844 15
3.10533 3.2919831 2.0349107 15
3.1718793 3.9047971 2.0227127 15.1585
3.4161322 0.19450881 -1.1423887 3
3.4002397 0.60574514 -1.0173106 3.5
3.4550338 1.0312302 -0.91703492 0
3.390197 0.62736821 -0.7374323 2
3.3643985 0.91688108 -0.63972825 2.1666667
3.5076563 -1.2720309 -0.04166409 6.5
3.2672169 1.0329217 -0.14990385 5.7142859
3.2469738 1.2249955 -0.30544591 4.333333
3.5121093 -1.2612936 0.30811545 8.8312502
3.3009005 1.0474001 0.21517234 8.4833336
3.2516453 -1.6698997 0.67660129 11.221028
3.3873594 -1.3806131 0.71557397 11.318954
3.533649 -1.1119432 0.6760993 11.885388
3.2664897 0.98332059 0.59420717 11.510281
3.5645938 1.4636396 0.67504799 11.5001
3.3889439 3.0783925 0.60961992 11.605499
3.2376931 -1.7145377 0.95508111 12
3.4034126 -1.419798 0.94364399 12.193707
3.5230401 -1.1401464 0.94724226 12.375
3.277266 1.018749 0.9974243 12.892181
3.5928419 1.5099196 1.0355151 13
3.3388748 2.6128254 0.92359763 13.165875
3.3361692 2.8850939 0.95019192 13.110875
3.2141271 3.95804 1.0489153 11
3.2677956 -1.6369544 1.2862972 13.714286
3.3921175 -1.4025618 1.3229306 13.680339
3.5299466 -1.1205509 1.441146 13.666667
3.2640285 1.1584309 1.2022684 14.157
3.3124712 3.7024653 1.4184865 12.545049
3.5890858 1.0016526 1.7450708 15.148
3.4470212 1.2546306 1.6133232 14.149334
3.4750977 2.7100043 1.9986311 15
3.4758692 3.7238107 1.8238451 13.993948
3.4165995 2.7986386 2.0025465 15
3.321702 2.9616859 2.0137534 15
3.4103463 3.7457411 2.0374324 15.1575
3.6280131 0.45114833 -0.80675572 0
3.6835167 0.75284958 -0.64473575 3.5
3.7496002 0.8439362 -0.55223787 4
3.8997087 -0.52192092 -0.052845601 6.9166665
3.9569287 -0.38093036 -0.17023985 6
3.6868513 -0.9365499 0.30012962 8.833333
3.8671265 -0.58650815 0.19163203 8.8025312
3.9518828 -0.36169663 0.17282468 8.083333
3.855293 1.8351496 0.32551515 9.1505003
3.6808686 -0.90911919 0.62186539 11.327041
3.8832524 -0.57725465 0.62275821 11.415876
3.9841671 -0.36970201 0.7348029 12
3.6219459 1.4970731 0.60623628 10.833334
3.7877722 1.7680275 0.64060169 10.755802
3.9921813 2.0759389 0.58865684 10.151
3.7190969 2.8915377 0.62799156 11.602666
3.7029912 -0.87900263 0.94722444 12.645604
3.9031019 -0.59292966 0.96797758 12.92014
3.9647682 -0.38032061 0.9435178 12
3.6182115 1.5443051 1.0430393 13
3.759192 1.7908399 0.96536857 12.331349
3.9770033 2.0695267 0.8165248 11.151
3.6386843 2.5658028 0.94523895 13.12875
3.6479158 -0.97358209 1.3900089 13.75
3.8619416 -0.61649245 1.4373499 13.833475
3.6723671 3.68574 1.4395708 12.604972
3.9375842 -0.46025079 1.6183269 14
3.9855311 -0.3668482 1.6436259 14
3.9286687 0.75602013 1.7980354 15.146749
3.8404303 1.0262611 1.685987 14.48125
3.8554206 3.5216353 1.7864726 13.684438
3.6763546 3.6912317 1.8077728 14.188653
3.7377467 3.5233731 2.0607359 15.156126
4.3472867 -0.12169233 -0.92179859 0
4.2362385 0.17428072 -0.91889161 3.3333333
4.2977738 0.52952647 -0.99450833 2.1111112
4.035078 -0.43051016 -0.59099329 3
4.2963614 0.23810777 -0.60444403 5.2111115
4.3408952 0.48352405 -0.6282357 4.3166666
4.0334988 1.1389972 -0.45090204 4
4.002975 -0.41698831 -0.34557566 4.5
4.0914755 -0.16977435 -0.065438643 7.0500002
4.2986441 0.22039118 -0.14081635 7.0945945
4.3704476 0.42919236 -0.2406074 6.1111112
4.1157498 -0.16393742 0.20533685 8.9773817
4.3145738 0.20135109 0.14900085 8.7287493
4.3776603 0.4009712 0.077850051 8
4.0270667 2.054024 0.34972596 9.151
4.1456795 -0.12584725 0.62585723 11.271053
4.3017855 0.13320524 0.61195892 11.16579
4.1105752 2.1995111 0.57215297 10.008786
4.282001 2.4461522 0.53550619 9.6520004
4.1606045 -0.11805964 1.0177372 12.904958
4.3122573 0.15506133 0.99627078 12.783334
4.0532641 2.1574802 0.82946461 11.15175
4.1578598 -0.14253898 1.3178815 13.404027
4.3450789 0.15398942 1.3020613 13.433731
4.1540594 -0.10357208 1.6763368 14.4568
4.3214498 0.15719652 1.7392765 14.380916
4.2038751 0.69905233 1.7361054 14.811833
4.0385041 0.84094989 1.7206079 14.148999
4.291893 3.1211731 1.8028586 13.676684
4.0442371 3.3593519 1.8640327 13.905499
4.3766699 2.774241 2.0666738 15
4.2549438 3.0320234 2.0489645 15.07675
4.1220956 3.2570791 2.0496597 15.125101
4.5034523 0.2277586 -0.91403252 2
4.4945817 0.73685515 -0.93142986 1.3333334
4.6294055 0.97412056 -0.90931618 1.375
4.4271235 0.25564465 -0.57191032 5
4.4768915 0.69171154 -0.62500793 4.6916671
4.6414638 0.94825935 -0.56784964 4.3105264
4.5719523 1.2513063 -0.58190763 3.6666667
4.5874238 1.8449891 -0.55826575 4
4.4418325 0.24331209 -0.26361129 6.1666665
4.5239143 0.64663017 -0.16835247 6.8380957
4.6812887 0.93110806 -0.14382645 7.0979333
4.6244183 1.5695163 -0.37880233 5
4.7472167 1.7602264 -0.30124629 6
4.7688107 2.192497 -0.22735487 5
4.4239802 0.32746801 0.31219855 9.666667
4.5474224 0.58431667 0.17922226 8.7878809
4.7456918 0.94082284 0.15481833 8.5353241
4.7901778 1.2470703 0.1407844 8.7843332
4.4387355 0.32629603 0.54863781 10.46875
4.5973067 0.60141575 0.59037662 11.030519
4.7515898 0.87524736 0.57228279 10.821428
4.427052 0.31604117 0.94015902 13.2
4.6293831 0.6489256 1.0006809 12.656796
4.7681837 0.91921711 1.0336044 12.925925
4.4431386 0.31595275 1.270692 13
4.6071272 0.60201693 1.3553212 13.41372
4.7574263 0.91004235 1.4077889 13.444445
4.4285507 0.34657717 1.7819585 14.57325
4.4969382 0.5263108 1.7685086 14.490786
4.7759323 0.88089657 1.6612375 14
4.7822247 2.7898989 1.9881516 14
4.6204739 2.9107578 1.7943475 13.558453
4.7002845 2.179481 2.0442631 15
4.5343809 2.5281126 2.0411139 15
4.5830879 2.8623776 2.0454772 15.0765
5.0477552 1.3474851 -0.94927275 1.7592592
5.0505686 1.3580639 -0.56262112 4.188889
4.8915553 1.1085763 -0.18965891 6.6999998
4.9594054 1.3245542 -0.18072411 6.5462961
4.8638511 1.7598343 -0.27124521 6
5.174365 2.3089492 -0.30334973 6
5.0363221 2.9489911 -0.13473654 5.5
4.8990202 1.119633 0.21238731 8.8953018
4.9704614 1.3631334 0.1558964 8.526968
5.1166291 1.7138668 0.1540675 8.7534161
5.1607947 2.4248371 0.10943224 8
5.0389504 2.9675033 0.20137417 7
