# .PCD v0.7 - Point Cloud Data file format
VERSION 0.7
FIELDS x y z intensity
SIZE 4 4 4 4
TYPE F F F F
COUNT 1 1 1 1
WIDTH 110
HEIGHT 1
VIEWPOINT 0 0 0 1 0 0 0
POINTS 110
DATA ascii
-1.2284898 -4.1346312 -0.93322188 1.3333334
-1.1205084 -4.1630154 -0.95395118 1.2
-1.1124444 -5.2598829 0.095126301 8.0389996
-0.98163152 -5.0353899 0.26613429 9.0395002
-0.86678177 -4.4426117 0.080143742 8.0395002
-0.91861415 -4.3223028 0.23008084 9.0390005
-0.90075409 -3.7576115 0.13345118 8.53825
-0.85434926 -3.3108718 0.11873519 8.5377502
-0.85197181 -2.9874263 0.055113539 8.0369997
-0.65577877 -4.4850392 -0.13551553 6.625
-0.61029112 -4.5299773 0.10745432 8.1806669
-0.7956115 -3.7693818 0.33547139 10.039
-0.76395231 -3.3070838 0.29529983 10.0385
-0.76592314 -2.9718795 0.21329096 9.5377502
-0.60531878 -4.6046987 0.40489867 10.04125
-0.24552208 -4.6558299 0.18935876 8.7101669
0.10787016 -5.7753692 0.10217861 8.0454998
0.79828179 -5.4507184 -1.4655461 0
0.9219349 -5.5338383 -1.3257051 0.80000001
1.1049736 -5.8227983 -0.92951316 3
0.98550355 -5.5864272 -1.0935066 2
1.1281981 -5.8905892 -0.62351507 4.5
1.2734817 -5.6242008 -1.3198327 1
1.3196431 -5.4473896 -1.4237565 0.33333334
1.4621171 -5.0678587 -1.2064899 1
1.3430827 -5.7540979 -1.0853342 2.25
1.5018215 -4.9137573 -1.1750681 1
1.5476183 -4.6175752 -1.1133469 1
1.5828385 -4.3318324 -1.05387 1
1.3873889 -5.9508662 -0.63560349 4.5
1.6492927 -5.9172058 -1.0182399 2.75
1.8814468 -5.3810978 -1.0989418 2
1.6128137 -4.0909615 -1.004493 1
1.6692814 -3.8196805 -0.95174927 1
1.6873715 -6.0029802 -0.75743318 4
1.7062458 -5.9976449 -0.75743318 4
2.7326035 -2.0483549 -0.47182494 3.5
2.772121 -1.806101 -0.46321633 3.4444444
2.6810791 -2.15521 -0.2087179 5.75
2.5741074 -2.4556491 0.26827976 9.7348328
2.6207941 -2.2292695 0.093735464 8.2957878
2.6642313 -2.5406239 0.49187726 11.4015
2.6910214 -2.3381624 0.43343019 11.0695
2.6861582 -4.06388 1.1133864 13.06175
2.772279 -3.9465361 1.1021729 13.0625
2.419564 -4.0337453 1.2494705 14.0605
2.6081872 -3.7973292 1.2240534 14.062249
2.7882094 -3.5703294 1.2029443 14.064
2.9986527 0.27451003 -0.59987319 0.75
2.9788554 0.52964526 -0.64597887 0.75
2.8936663 -2.1939988 -0.10264384 6.6666665
2.9622376 -1.7849863 -0.1321495 6.375
2.9213979 -1.4416832 -0.28303742 4.9583335
2.9894543 -1.0506285 -0.2455925 5.2222219
3.0967975 -0.6407733 -0.17224379 5.9000001
3.0392494 0.36909363 -0.36789912 3
3.0458517 -3.3205454 0.39267719 10.06625
3.0351286 -3.0873432 0.30181393 9.5672503
3.0094423 -2.2528653 0.13718469 8.5693169
3.1197701 -1.8030019 0.12573752 8.5749998
3.1475558 -1.4258715 0.088012829 8.3000555
3.1788476 -1.0065774 0.059153251 8.0268335
2.8714962 0.82409781 0.36244106 11.098
3.1494641 -3.8035483 0.71971655 11.7315
3.1128581 -3.3943315 0.56111026 11.06625
3.1490793 -3.1514871 0.54255164 11.0675
2.9202662 -2.4758384 0.66690648 11.903167
2.928081 -2.3765056 0.52564615 11.5705
2.9266043 0.62552088 0.4682273 11.096
3.0167708 -4.07339 0.93076581 12.06325
2.9302111 -3.7501903 1.0878198 13.064
3.0218761 -3.3954391 1.1494104 13.7325
3.1503832 -3.0988195 1.1732192 14.06775
2.9391942 -2.5538828 0.96151799 13.569501
3.2117867 -2.0869832 0.33343878 10.073501
3.244303 -1.7983906 0.32290104 10.0755
3.2596242 -1.3726337 0.26322472 9.7149553
3.2836146 -0.97105688 0.21136999 9.3484335
3.3502436 -0.54860562 0.22795992 9.4590836
3.3868482 -0.26964611 0.2317939 9.4916582
3.4230242 0.21033487 0.18065602 9.0917501
3.4677866 0.54146385 0.17602256 9.0229998
3.2012873 -3.6805203 0.76668823 12.0655
3.2183721 -3.3936727 0.73504514 12.06675
3.2796578 -2.4456787 0.59472412 11.738334
3.3001816 -2.1833816 0.55193096 11.57325
3.3486784 -1.7798804 0.54035515 11.575999
3.4266388 -1.3838496 0.58265775 11.579
3.472903 -0.99470621 0.56955683 11.582001
3.4971926 -0.69836134 0.54401952 11.512927
3.4798446 -0.25245276 0.42446339 11.0445
3.5472908 0.18828768 0.43198252 11.0915
3.5952704 0.44358927 0.44032747 11.0935
3.2623739 -3.3237374 1.0640476 13.06725
3.2966847 -3.1927502 1.0483487 13.068
3.4476817 -2.5243056 1.0645006 13.627445
3.5470393 -2.1955667 1.0217961 13.518556
3.5373487 -1.803749 0.90616119 13.0765
3.5657275 -1.4058429 0.87453914 13.07925
3.5875411 -1.1629592 0.85996151 13.081
3.6126568 -0.50808638 0.70065582 12.086001
3.6516728 -0.22284731 0.70287597 12.08825
3.7161045 0.1966487 0.71515459 12.0915
3.6123414 0.53790843 0.44397837 11.09425
3.6185424 -1.8062732 1.0732734 14.076749
3.6465104 -1.3987693 1.035966 14.0795
3.654321 -0.99738324 0.94147032 13.627819
3.6931062 -0.61771399 0.92421836 13.585251
3.7463639 -0.22935931 0.92641675 13.588249
3.8104091 0.16771883 0.94157416 13.59125
