# .PCD v0.7 - Point Cloud Data file format
VERSION 0.7
FIELDS x y z intensity
SIZE 4 4 4 4
TYPE F F F F
COUNT 1 1 1 1
WIDTH 283
HEIGHT 1
VIEWPOINT 0 0 0 1 0 0 0
POINTS 283
DATA ascii
4.6344557 0.23475623 -12.626786 8
4.6348696 0.70494097 -12.627914 9
4.6820922 1.1780647 -12.625552 10
4.6381402 1.6527746 -12.63683 11
4.2149014 2.0909646 -12.511251 12
1.5248232 0.20988195 -11.928334 8
7.636157 0.24581619 -11.834077 8
1.5240818 0.62988961 -11.922539 9
7.6428041 0.73872203 -11.84438 9
1.5222229 1.0502572 -11.907998 10
7.6325994 1.2315737 -11.828567 10
1.524989 1.4766532 -11.929642 11
7.6415744 1.7304713 -11.842477 11
0.42000714 0.095463872 -5.4538102 8
4.407527 0.12436142 -5.5986967 8
0.42075744 0.28716007 -5.4635568 9
4.3987989 0.37266794 -5.5876112 9
0.4196395 0.47811404 -5.4490395 10
0.42006671 0.67168975 -5.4545903 11
4.3912525 0.62106478 -5.5780263 10
4.395916 0.87255311 -5.58395 11
4.402648 1.1272659 -5.5925031 12
0.35404688 -0.092587255 -5.2920051 7
4.4089522 -0.11709245 -5.0553937 7
4.4078593 0.11704507 -5.0541415 8
4.4013729 0.35092208 -5.0467057 9
4.4074354 0.58663642 -5.0536571 10
4.4050708 1.3026874 -5.0509472 13
4.4036756 1.5467317 -5.0493474 14
4.3164873 0.79716665 -4.8500266 11
4.3096285 1.026664 -4.8423209 12
4.30972 1.7369171 -4.8424253 15
-0.33727401 0.72241896 -4.5489111 12
-4.6541767 1.2511373 -4.4462585 13
-4.6705756 1.4634073 -4.2855921 14
4.3425932 1.361264 -3.9888272 14
-1.176676 0.72984213 -3.5657542 13
-4.6622801 1.1230267 -3.4122329 13
-4.666851 1.3351439 -3.4155779 14
4.324163 -0.2809352 -3.1682584 6
4.4062157 0.093101211 -3.0067189 8
4.4030399 0.27934262 -3.0045521 9
4.4115248 0.46723288 -3.0103419 10
4.4029827 0.65446353 -3.0045137 11
4.4068999 0.84497005 -3.0071867 12
4.3984513 1.0350192 -3.0014224 13
4.3094497 1.4076157 -3.004658 15
4.4042859 -0.27879864 -2.9838097 6
4.4026694 -0.092827693 -2.9827149 7
-4.5213609 1.0471299 -2.9288273 13
-5.975976 1.2926029 -2.9170625 13
-4.5067573 1.2396753 -2.9193678 14
4.4110622 1.2300255 -2.9884028 14
-5.9461722 1.5301005 -2.9272418 14
-4.5232329 1.4409267 -2.9085584 15
-5.976994 1.7821337 -2.9175601 15
-4.521522 1.0153887 -2.6160612 13
-6.1635828 1.3010052 -2.6092973 13
-4.5204005 1.3023629 -2.6154127 14.5
-6.1556683 1.7911094 -2.6059473 15
-6.1656704 1.5435654 -2.5858397 14
-3.0750315 -0.26610333 -2.267029 5.5
4.4188929 -0.25993201 -2.2524772 6
4.6743007 -0.27177975 -2.2460723 6
-3.1158569 -0.067909695 -2.32898 7
-2.1843319 -0.055869356 -2.3389766 7
4.4000897 -0.086208999 -2.2428935 7
5.0527525 -0.096497029 -2.2428834 7
-3.0850339 0.13297859 -2.2822318 8.5
-2.1913619 0.11221652 -2.3465044 8.5
4.4029174 0.086253062 -2.2443352 8
5.1153393 0.097537346 -2.2501659 8
-3.0984612 0.33842647 -2.3159785 10
-2.2421474 0.28636345 -2.3848026 10
-2.1878881 0.39357564 -2.3427851 11
4.3946152 0.25849262 -2.2401037 9
5.1156836 0.29288 -2.2503176 9
-3.1099665 0.47672626 -2.324578 11
-2.1946883 0.5092684 -2.3500659 12
4.4130144 0.43333378 -2.2494822 10
5.1108789 0.48847321 -2.2482047 10
-2.1868477 0.62277824 -2.3416708 13
4.4053268 0.69507772 -2.2455642 11.5
5.1236033 0.68724877 -2.2538018 11
4.3962202 0.95911407 -2.2409232 13
5.1036887 0.88306385 -2.2450426 12
4.4141521 1.1438006 -2.2500632 14
5.1076064 1.0845901 -2.2467663 13
4.3946357 1.3239139 -2.2587087 15
5.1001382 1.2862999 -2.2434819 14
5.1073222 1.4950035 -2.2466421 15
5.1362438 -0.096447416 -2.0368044 7
-5.9866967 0.11057884 -2.0734406 8
5.1374159 0.096332252 -2.0173645 8
5.0254369 0.28445995 -2.0515954 9
-3.0220454 0.59025288 -2.1808746 12
5.0377865 0.47539505 -2.0369604 10
5.0255036 0.66556078 -2.0319943 11
5.0336995 0.85993361 -2.0353084 12
5.0405588 1.0568092 -2.0380819 13
5.0361814 1.2540977 -2.0363123 14
5.1470294 1.4816136 -2.0211415 15
-6.1640487 1.0240351 -1.9513623 12
-6.0635071 1.2336788 -1.8748976 13
-6.0667543 1.4660438 -1.8759017 14
-6.1680398 1.7317263 -1.9298985 15
-3.6119449 -0.20527688 -1.5148879 6
-3.44735 -0.32894483 -1.5005366 5
5.1213489 -0.28012094 -1.5303248 6
-3.6048439 -0.068240762 -1.5119102 7
-3.6107948 0.068337969 -1.5144061 8
-3.6096795 0.34245026 -1.5139384 10
-3.5433731 0.20164925 -1.500121 9
-3.620147 0.48200309 -1.5183284 11
-3.4317863 0.5936625 -1.5074692 12
5.0752277 -0.26871482 -0.72999626 6
5.1402674 0.82330513 -0.77456439 12
5.0746703 1.1830397 -0.71256155 14
5.0793443 1.3756452 -0.7479803 15
-6.0599909 0.96388501 -0.55920553 12
-6.0633464 1.183603 -0.55951536 13
-6.1573024 1.4263151 -0.50578111 14
-6.1735916 1.6593364 -0.48628688 15
-2.9728196 -0.10427308 0.25527036 6.5
-2.9644206 0.10403074 0.25454861 8.5
-6.0800323 0.31891975 0.25606734 9
-2.9614675 0.31242678 0.25429478 10.5
-6.1686134 0.54016042 0.25979948 10
-2.9663608 0.52515668 0.25471494 12.5
-2.9399157 0.68124062 0.25244305 14
4.9918413 0.61592329 0.494955 11
-6.1555972 1.6537125 0.44561526 15
4.9883451 0.6196779 0.76653308 11
-2.9199638 0.74431014 1.3664765 14
-2.9768424 -0.17570579 1.5419803 6
-2.9407177 -0.29616868 1.6766083 5
5.0849981 -0.28138599 1.7236371 6
-2.9660468 -0.12028629 1.7441677 6.5
-2.9645226 0.12008933 1.7432715 8.5
-2.9546578 0.29988563 1.73747 10
-2.9660659 0.48406795 1.7441784 11.5
-2.9152575 0.660016 1.7407128 13
5.0770478 -0.095317088 2.0107875 7
5.1549115 0.48572668 2.0616469 10
5.1466393 0.8791042 2.0783803 12
5.1447792 1.2792332 2.0575945 14
5.079257 1.4638344 2.0116627 15
-4.4538226 1.2074859 2.7409251 14
-4.4531112 1.4040614 2.761173 15
4.4104071 -0.27662194 2.8997335 6
4.3730116 -0.091553226 2.8961921 7
5.1421928 -0.10310822 2.9071963 7
4.3677287 0.091647573 2.913806 8
5.1324067 0.10291328 2.9016631 8
4.3736615 0.27492577 2.8966219 9
5.1342816 0.30910248 2.9027226 9
4.3559313 0.45811537 2.9059358 10
5.126009 0.51517862 2.8980458 10
4.376564 0.64454174 2.8985443 11
5.133296 0.72404683 2.9021659 11
4.352942 0.82877594 2.9039412 12
5.1049471 0.93058622 2.9087663 12
4.3606381 1.0189295 2.9090757 13
5.126565 1.1447356 2.8983603 13
4.3586159 1.2096354 2.9077268 14
5.12251 1.3585429 2.8960679 14
4.36411 1.4056911 2.9113922 15
5.1288962 1.5787115 2.899678 15
-4.3613372 -0.28127077 3.1275325 6
4.353848 -0.28072536 3.1203904 6
4.3715267 0.49008057 3.5025771 10
4.305882 0.68678766 3.5701234 11
4.3090291 0.88410801 3.5484223 12
-4.3656783 -0.10680812 4.2872987 7
-4.3674636 0.108284 4.4056544 8
-4.3791552 0.32599002 4.417448 9
-4.3605351 -0.11116274 4.6412573 7
-4.3644185 0.11414122 4.8695025 8
-4.3678422 0.34297371 4.873322 9
4.3086877 1.7292598 4.8046851 15
-4.402554 1.5521362 5.0809021 14
4.3155127 1.8003061 5.1496367 15
-4.3710737 -0.1188287 5.2188315 7
-4.3593183 0.3572441 5.2403884 9
4.3133512 0.6046263 5.3995504 10
-4.4961877 1.3398117 5.2242532 13
-4.4972081 1.8473215 5.2254372 15
4.3175712 -0.1212559 5.4421492 7
-4.3725061 0.1238938 5.5910902 8
4.3152852 0.12068586 5.4019718 8
4.3187084 0.36416641 5.443583 9
4.3200436 0.85345572 5.4452658 11
4.3671417 1.377509 5.5810885 13
4.3169198 1.6035661 5.4413295 14
4.3630128 1.8970714 5.5758114 15
4.3509741 0.89396966 5.8376794 11
4.3679075 -0.13114493 6.1132956 7
4.3541541 0.1307362 6.0940466 8
4.365386 0.39353594 6.1097665 9
4.3605433 0.656232 6.1029878 10
-4.4894562 1.4608337 6.0269156 13
-4.4917378 0.4433347 7.1681876 9
-4.5039716 0.74211103 7.1877112 10
-4.5047369 1.0416808 7.1889315 11
-4.4908066 1.339548 7.1667008 12
-4.4962988 1.6459961 7.1754651 13
-4.4962482 1.9549502 7.1753836 14
-4.5003047 2.2709923 7.1818576 15
-5.5741034 2.7550893 10.551679 14
-5.5673337 3.1937151 10.538863 15
3.3045619 0.58884573 10.738772 9
-4.9383445 1.038666 10.796045 10
4.0836082 1.0082241 10.776171 10
2.8302321 1.3604858 10.712623 11
3.4218628 1.3834063 10.734664 11
4.0790629 1.413399 10.764175 11
4.7630525 1.4476557 10.785206 11
4.0802884 1.8237431 10.76741 12
2.83178 2.1549611 10.718483 13
4.081008 2.2386165 10.769307 13
-4.9192514 3.145751 10.659679 15
-0.44082072 0.19196391 10.988472 8
-5.7179208 0.21367839 10.823929 8
-4.9019413 0.20722118 10.812148 8
-1.2915891 0.57885021 10.969199 9
-0.40413913 0.57658267 10.994287 9
-5.7140141 0.64111334 10.816532 9
-4.9437022 0.62286162 10.807761 9
4.8135614 0.61975241 10.801437 9
-0.4407928 0.96208805 10.987768 10
3.4857354 0.99368495 10.80966 10
-5.7147789 1.0704055 10.817978 10
4.622901 1.0326079 10.859645 10
5.2631822 1.0526524 10.819555 10
-0.44064453 1.3497709 10.984068 11
2.0513496 1.3726996 10.989841 11
-5.715332 1.5023878 10.819025 11
-4.9442954 1.4594548 10.809056 11
5.2660136 1.4781209 10.825377 11
-0.4406153 1.7410035 10.983337 12
-5.7111135 1.9365555 10.811039 12
-4.8992491 1.8792373 10.806206 12
3.5703154 1.8050623 10.822955 12
5.2605786 1.9047147 10.814204 12
-0.40414494 2.1385603 10.994428 13
-5.7075982 2.375211 10.804384 13
-4.9402323 2.308563 10.800171 13
3.4865129 2.2082336 10.812073 13
4.6262426 2.2958772 10.867496 13
4.857728 2.3024292 10.802985 13
-5.4018722 2.7948856 10.833844 14
2.7311616 3.0185065 10.929066 15
0.63018399 0.19264165 11.018123 8
1.5320064 0.19496413 11.06361 8
2.0391414 0.19753475 11.131209 8
3.3074381 0.20067352 11.01022 8
5.2210264 0.21426508 11.109203 8
6.0378709 0.22132082 11.149195 8
0.59342629 0.57856798 11.023634 9
1.45092 0.58260179 11.021473 9
2.0376906 0.592655 11.123289 9
6.0321069 0.6638574 11.138551 9
2.0405188 0.99073845 11.138729 10
2.8721263 0.99639881 11.020684 10
6.0410705 1.1098757 11.155102 10
0.59377944 1.356311 11.030201 11
1.6073704 1.3724498 11.061441 11
6.0350533 1.5560838 11.143992 11
0.59334719 1.748282 11.022172 12
1.6060642 1.768935 11.052454 12
2.002079 1.7926018 11.139476 12
2.8695486 1.8022006 11.010793 12
1.5322475 2.1714256 11.065354 13
6.0319304 2.0062108 11.138225 12
2.03984 2.2004628 11.135026 13
6.0346417 2.4632659 11.143231 13
2.0405962 2.6144884 11.139154 14
3.028933 2.6374004 11.014904 14
5.0380974 2.8151903 11.104422 14
6.0273752 2.9221311 11.129812 14
3.0266252 3.0586743 11.006511 15
5.0365262 3.2663341 11.100961 15
6.0391898 3.3981175 11.151629 15
