# .PCD v0.7 - Point Cloud Data file format
VERSION 0.7
FIELDS x y z intensity
SIZE 4 4 4 4
TYPE F F F F
COUNT 1 1 1 1
WIDTH 1311
HEIGHT 1
VIEWPOINT 0 0 0 1 0 0 0
POINTS 1311
DATA ascii
11.286963 -0.31987911 -14.436588 7
11.293491 0.32002142 -14.444092 8.1610003
11.296376 0.96112043 -14.447783 9.1610003
11.290986 1.6037226 -14.440889 10.161
9.8093519 -0.29893434 -14.037397 7
10.251732 -0.30513859 -14.158902 7
10.806284 -0.31301174 -14.309785 7
9.8169918 0.29912391 -14.04755 8.1625004
10.262169 0.30540615 -14.172517 8.1619997
10.807703 0.31301001 -14.310841 8.1615
9.8047514 0.89701277 -14.030038 9.1625004
10.254029 0.91626686 -14.161279 9.1619997
10.817094 0.94064057 -14.323277 9.1615
9.811162 1.4984474 -14.039213 10.1625
10.250504 1.529085 -14.156411 10.162
10.808267 1.5690181 -14.311589 10.1615
8.9735346 -0.28741217 -13.804853 7
9.3845825 -0.29306105 -13.920846 7
8.980545 0.28759322 -13.814894 8.1634998
9.3877916 0.29311794 -13.924845 8.1630001
8.9742012 0.86290276 -13.805137 9.1634998
9.3841362 0.87975752 -13.919426 9.1630001
8.9792776 1.4413407 -13.812947 10.1635
9.3919754 1.4698896 -13.931053 10.163
8.9767637 2.0222661 -13.809079 11.1635
9.3843746 2.0612297 -13.919781 11.163
1.1825036 -0.23781128 -13.571757 7
1.4038936 -0.23680927 -13.492944 7
1.627265 -0.23643059 -13.445988 7
1.1369239 0.23775749 -13.574937 8
1.3936456 0.23698634 -13.506102 8
1.6489104 0.23626237 -13.436016 8
1.1365603 0.71368915 -13.571028 9
1.3933798 0.71144706 -13.503594 9
1.6490502 0.70946097 -13.437076 9
1.136121 1.1909459 -13.565457 10
1.3932053 1.1875249 -13.501699 10
1.6496129 1.1847947 -13.441829 10
1.136629 1.6721618 -13.571459 11
1.3935397 1.6669991 -13.504759 11
1.6489867 1.6621406 -13.436582 11
4.1889787 -0.23016129 -12.501466 7
4.5789347 -0.23411979 -12.606015 7
4.9451571 -0.2355485 -12.554201 7
5.4093852 -0.23665334 -12.430588 7
3.935504 0.22764504 -12.435109 8
4.1875072 0.23005141 -12.497612 8
4.6051693 0.23433508 -12.611571 8
5.0116448 0.23566693 -12.537448 8
5.3637247 0.23644353 -12.439714 8
3.9108305 0.68285531 -12.429418 9
4.1895442 0.69107747 -12.503477 9
4.6417398 0.70436347 -12.613434 9
5.0100574 0.70739168 -12.533565 9
5.3876619 0.71035314 -12.437727 9
3.9348412 1.140887 -12.432991 10
4.189754 1.1537521 -12.504213 10
4.6535549 1.1761677 -12.612753 10
5.009707 1.1808336 -12.532643 10
5.3887739 1.1861011 -12.440209 10
3.8852012 1.5979081 -12.420785 11
3.9597318 1.6028181 -12.439219 11
4.1896281 1.6191787 -12.503881 11
4.6157379 1.6497692 -12.618773 11
5.0134764 1.6584592 -12.541924 11
5.375051 1.6636142 -12.437303 11
3.9113729 2.0640175 -12.431139 12
4.1508274 2.085057 -12.493187 12
2.5388982 -0.21502204 -12.053234 7
2.9262996 -0.21835467 -12.161103 7
3.3942006 -0.22240561 -12.279848 7
3.7599621 -0.22591893 -12.383814 7
5.8566356 -0.2380199 -12.313008 7
6.2385931 -0.23930046 -12.206965 7
6.578548 -0.24058321 -12.110336 7
6.9311748 -0.24233606 -12.028647 7
2.6066899 0.21554899 -12.071289 8
3.0416899 0.21929406 -12.19044 8
3.395087 0.22243109 -12.283386 8
3.7707458 0.22589402 -12.380968 8
5.5187497 0.23684599 -12.397168 8
5.800808 0.23781309 -12.328457 8
6.1915689 0.23903604 -12.21542 8
6.5925908 0.24069035 -12.111802 8
6.9639692 0.24239287 -12.015397 8
2.362139 0.64147097 -12.010462 9
2.6060989 0.64705157 -12.068321 9
3.0261776 0.65805292 -12.186471 9
3.3946185 0.66778153 -12.281707 9
3.6881781 0.67648166 -12.370396 9
5.5618763 0.71135628 -12.382234 9
5.7980847 0.71371269 -12.322544 9
6.2193189 0.71855789 -12.219296 9
6.5941234 0.72286057 -12.114644 9
6.9668999 0.72810692 -12.020416 9
2.3619406 1.0707836 -12.009457 10
2.6063426 1.0802954 -12.06951 10
3.0415552 1.0991805 -12.189949 10
3.3953125 1.1150309 -12.284307 10
3.7729828 1.132985 -12.388413 10
5.5639701 1.1879851 -12.386897 10
5.8011436 1.1921086 -12.329153 10
6.0828891 1.1969604 -12.255015 10
2.360647 1.5019584 -12.002878 11
2.6074629 1.5167609 -12.074518 11
3.0403268 1.5420089 -12.185005 11
3.3962872 1.5653231 -12.287786 11
3.6868854 1.5843791 -12.366078 11
6.3081594 1.2009072 -12.191408 10
6.5923204 1.2064173 -12.111395 10
6.9538746 1.214986 -12.021133 10
2.3628716 1.9392645 -12.014194 12
2.6060979 1.9555054 -12.068177 12
3.0257201 1.9884814 -12.184675 12
5.5402803 1.6663893 -12.389674 11
5.7990255 1.6724451 -12.324679 11
6.2187061 1.6833559 -12.218204 11
6.593339 1.6933817 -12.113144 11
6.9049997 1.7030568 -12.029656 11
3.3971229 2.0196431 -12.290623 12
3.6879244 2.044342 -12.369633 12
1.7781113 -0.20914921 -11.848162 7
2.2081628 -0.21240577 -11.965363 7
7.1654906 -0.24347956 -11.96699 7
7.4447618 -0.24479489 -11.884313 7
1.556097 0.20874402 -11.858475 8
1.7416102 0.20869488 -11.829382 8
2.1967347 0.21223289 -11.959542 8
7.1164126 0.24314289 -11.97588 8
7.374053 0.24440333 -11.903351 8
7.636157 0.24581619 -11.834077 8
1.5552105 0.62642348 -11.851748 9
1.7886416 0.62807715 -11.850297 9
2.1848762 0.63672781 -11.951608 9
7.1101704 0.72941339 -11.965372 9
7.4015293 0.73409581 -11.892108 9
7.6428041 0.73872203 -11.84438 9
1.5552108 1.0457218 -11.851383 10
1.7878231 1.0480332 -11.844861 10
2.185694 1.0633695 -11.956267 10
1.5565963 1.468951 -11.862225 11
1.7878796 1.4709213 -11.845419 11
2.1863174 1.4927868 -11.959555 11
7.0400739 1.2159824 -11.984063 10
7.373558 1.2249905 -11.902632 10
7.6325994 1.2315737 -11.828567 10
1.8836039 1.9040834 -11.873606 12
2.1851885 1.9245796 -11.953166 12
7.0924969 1.7095126 -11.981209 11
7.4036264 1.7203879 -11.895373 11
7.6415744 1.7304713 -11.842477 11
1.4740387 -0.4072566 -7.629756 6
1.7803626 -0.40742075 -7.5664496 6
2.1607516 -0.40666291 -7.4518328 6
2.5878055 -0.40669614 -7.3145342 6
-4.576694 1.9885693 -7.2971435 14.016
-6.0843458 2.2088466 -7.383482 14.019751
-4.6246176 2.2079058 -7.3967652 14.616
-6.0819335 2.5626512 -7.3807645 15.019751
3.0070806 -0.40678912 -7.1549854 6
3.3972168 -0.40644494 -6.9707599 6
3.6478176 -0.40680397 -6.8517203 6
3.8463225 -0.40675595 -6.7403765 6
4.2028818 -0.40682146 -6.5255036 6
-6.4895167 0.48123744 -6.4971471 9.0225
-6.4873419 2.4597058 -6.4949718 15.0225
4.6117115 -0.40657246 -6.2363391 6
-6.2702217 0.45736396 -6.0705862 9.0229998
-6.2773585 2.179106 -6.0774965 14.523
-6.2684069 0.44517496 -5.732707 9.0237503
-6.2833648 1.9808971 -5.843081 14.0235
-6.276268 2.2790143 -5.7399697 15.02375
0.34837753 -0.0924557 -5.2847743 7
0.41253582 -0.093788259 -5.3567772 7
4.3952346 -0.2013994 -5.4089642 6.6666665
4.4027033 -0.20330265 -5.410851 6.6666665
0.36313432 0.20409258 -5.3792658 8.583334
0.42038229 0.19131197 -5.4586835 8.5
4.3971386 0.30799043 -5.4940052 8.75
4.405159 0.18387699 -5.5019655 8.25
-6.2766938 0.43273747 -5.3651023 9.0247498
0.36508057 0.59968168 -5.3858566 10.666666
0.41985309 0.57490188 -5.4518147 10.5
4.3941612 0.61484146 -5.4844894 10
4.4036837 0.60594112 -5.3454571 10
4.3957272 0.94365561 -5.4663978 11.333334
4.4025335 1.0533355 -5.4962468 11.75
4.394073 1.5864829 -5.283679 14
4.4016271 1.4615115 -5.2810187 13.5
-4.5126219 1.8455464 -5.2036624 15.0205
4.3970666 1.7196763 -5.3148003 14.5
4.4040537 1.8480304 -5.3079739 15
-6.2725372 2.2110882 -5.3615422 15.02475
0.19840109 -0.089175813 -5.1042881 7
4.3558531 -0.11602095 -5.0196381 7
4.4062996 -0.17610702 -5.078176 6.75
-4.7383261 0.35743737 -4.9059839 9
-0.09047015 0.16910775 -4.8435669 8.5
0.17168176 0.21025562 -5.1499429 8.666667
4.3561749 0.2315155 -4.9938159 8.5
4.4043617 0.23473935 -5.0789952 8.5
-6.2739015 0.41960779 -4.9744029 9.0257502
-4.6596041 0.58781976 -4.8407769 10
-0.094530419 0.50945735 -4.8444314 10.5
0.17187375 0.57294989 -5.1554608 10.666667
4.33145 0.72427475 -4.8915792 10.666666
4.4051042 0.58938241 -5.0971179 10
-4.6607533 0.94402403 -4.8338523 11.5
4.3337297 0.9804318 -4.9295664 11.75
4.4038162 0.94895452 -5.1185279 11.5
-4.8599653 1.5876774 -4.8657413 14.0225
-4.5817108 1.4299026 -4.9202824 13.5105
4.3546934 1.409964 -5.0008659 13.5
4.4037118 1.4288274 -5.0762782 13.5
-4.5582705 1.8056713 -4.9631524 15.02125
4.333416 1.752393 -4.8985109 15
4.4028454 1.8123522 -5.1348195 15
-6.2718573 2.1446931 -4.9725943 15.02575
0.2870819 -0.40688705 -4.6417542 5
0.62075216 -0.40699714 -4.6091275 5
0.98574841 -0.4071798 -4.5470371 5
1.3563682 -0.40632468 -4.4408569 5
-4.4744639 -0.33470175 -4.5564604 6
-0.18437973 -0.15833165 -4.5797133 6.5
4.3205295 -0.22042708 -4.6016927 6.5
-4.5877624 0.1133338 -4.5949211 8.0225
-0.43617359 0.23374954 -4.4357591 9
-0.26382366 0.1963433 -4.6378093 8.7142859
4.3185129 0.22058566 -4.6071239 8.5
-6.2811136 0.41197324 -4.7272468 9.0264997
-4.6597967 0.66420752 -4.5361347 10.428166
-0.43374261 0.62666583 -4.4365988 11.5
-0.30010015 0.62263715 -4.5936332 11.357143
4.3194294 0.66406822 -4.608129 10.5
-4.6612167 0.97475153 -4.5632257 11.761499
4.3213992 0.99906611 -4.5947227 12
-4.6601133 1.262373 -4.522975 13.007667
4.3184671 1.3427292 -4.6070375 13.5
4.3198872 1.6926252 -4.6086063 15
-6.2697997 2.089642 -4.6374373 15.026751
1.5504093 -0.40670019 -4.3823457 5
1.7960697 -0.40649405 -4.2835927 5
2.1997025 -0.40686888 -4.0958972 5
-4.4770284 -0.322301 -4.2149782 6
-0.5465914 -0.14459977 -4.158433 6.5
-0.25774685 -0.37235808 -4.2472219 5
4.3209653 -0.21089028 -4.2098575 6.5
-4.5837011 0.10841268 -4.1920409 8.0237503
-0.80357027 0.21413665 -4.0041966 9
-0.62108594 0.2236937 -4.2164984 9
4.3179274 0.21034682 -4.1984549 8.5
-4.659389 0.65973687 -4.201745 10.5
-0.62151557 0.59937608 -4.2166977 11.5
4.3202658 0.63291681 -4.1926899 10.5
-4.6598158 1.0463847 -4.1741171 12.25
4.3193812 1.0627056 -4.1998348 12.5
-4.6658521 1.3980651 -4.2389612 13.75
4.3180861 1.4422672 -4.1786251 14.25
4.3191085 1.6210746 -4.2363644 15
-6.2719994 2.0386031 -4.3060198 15.02775
2.3875651 -0.40660495 -3.9874566 5
2.6384194 -0.40632889 -3.8208599 5
2.8659911 -0.40712503 -3.6657434 5
-4.4763141 -0.30739012 -3.7888167 6
-0.95896411 -0.067736834 -3.7585347 7
-0.64847612 -0.27306846 -3.8769972 5.5
4.3200736 -0.20093703 -3.796196 6.5
-4.5841103 0.10443137 -3.8447375 8.0249996
-0.99449921 0.20438363 -3.7693827 9
4.3191214 0.20094392 -3.7987635 8.5
-4.6585879 0.63159204 -3.7914925 10.5
-1.0027077 0.55694288 -3.7599938 11.571428
-0.79382086 0.64436185 -3.9903467 12
4.3186064 0.60470939 -3.7982843 10.5
-4.6600299 1.0602728 -3.7957406 12.5
4.3192301 1.0146585 -3.7987947 12.5
-4.6592145 1.3924134 -3.8288047 14
4.3308105 1.3977647 -3.8925149 14.25
-3.3217151 -0.40786162 -3.2706611 5
-0.83089745 -0.40700832 -3.2089264 4
-0.59054065 -0.40770102 -3.2655103 4
-0.19382094 -0.40714717 -3.3086035 4
0.2465933 -0.40804273 -3.3131521 4
0.60548103 -0.4086026 -3.2708941 4
0.82902652 -0.40684903 -3.2081299 4
3.0473585 -0.4067426 -3.5098779 5
3.2836442 -0.40677604 -3.2912338 5
-4.4821305 -0.29590875 -3.4331884 6
-1.3308927 -0.062524527 -3.3233554 7
-1.1523361 -0.064868756 -3.5324836 7
4.3175726 -0.1921663 -3.4051118 6.5
-4.5877571 0.1008601 -3.5138798 8.0262499
-1.3486381 0.18946207 -3.3496075 9
-1.1681957 0.19640464 -3.5605021 9
4.3191223 0.19201531 -3.4010248 8.5
-4.6574054 0.61516881 -3.5424526 10.5
-1.3516003 0.57207239 -3.3445871 12
-1.1754997 0.66132081 -3.5589759 12.5
4.3184142 0.57791245 -3.4004705 10.5
-4.6592803 1.0656921 -3.421294 12.731277
4.3189635 0.9696905 -3.4009235 12.5
-6.4885235 1.4226999 -3.3860223 13
-4.6617036 1.3344082 -3.4165151 14.009084
4.3189378 1.3711835 -3.4008 14.5
-6.4876051 1.8252019 -3.3855593 14.5
-3.674 -0.40755522 -2.8631158 5
-3.4896491 -0.4076049 -3.0854261 5
-1.3016263 -0.40406227 -3.0221541 4
-1.027988 -0.40815294 -3.159667 4
1.0229211 -0.40781003 -3.1583993 4
1.4024658 -0.40766394 -3.0078256 4
1.683534 -0.40757498 -2.8602171 4
3.4976487 -0.40573722 -3.0441272 5
3.6672077 -0.40731475 -2.8675022 5
-1.6444664 -0.059099995 -2.958178 7
-1.437748 -0.28334016 -2.9648919 5
4.3403192 -0.23272575 -3.0795503 6.25
4.4039593 -0.18512543 -2.9451981 6.5
-1.7153627 0.17758568 -2.9163659 9
-1.533439 0.18259308 -3.1263347 9
4.352427 0.18480816 -3.0061893 8.5
4.4043565 0.18532491 -2.9615977 8.5
-1.719741 0.53656304 -2.9134414 12
-1.539055 0.55212319 -3.1239445 12
4.3513408 0.55547535 -2.9943626 10.5
4.40765 0.55860692 -2.9685974 10.5
-4.561367 1.0581503 -2.9706776 13.009334
4.3775439 0.98390222 -2.9988894 12.75
4.4052029 0.88737249 -2.9517455 12.25
-5.9617143 1.4094573 -2.8998632 13.5
-4.5479298 1.3263096 -2.9512687 14.382
4.3379498 1.3713902 -2.9815054 14.8
4.4080663 1.256669 -2.9474611 14.166666
-5.9775624 1.7787126 -2.8869693 15
-0.87847686 -0.40701753 -2.4148049 3
-0.60123819 -0.40792933 -2.5011129 3
-0.19431624 -0.40748268 -2.5630944 3
0.22446398 -0.40777254 -2.5637443 3
0.59833157 -0.40750459 -2.4991684 3
0.87779945 -0.40723437 -2.4165864 3
1.8813771 -0.40824899 -2.7409003 4
2.131964 -0.40747142 -2.5403757 4
3.8332789 -0.40645528 -2.6221178 5
-2.45385 -0.21884446 -2.5661032 5.75
-2.2130151 -0.1356191 -2.446126 6.3333335
-1.8000033 -0.2154984 -2.5946822 5.5
-1.5408711 -0.38437778 -2.7244215 4
4.3945084 -0.17835459 -2.5883245 6.5
4.4044976 -0.17886968 -2.6184638 6.5
-6.0838065 0.34407318 -2.4681182 9
-2.4160988 0.18352757 -2.5355215 9
-2.1738174 0.20543914 -2.4705806 9.2857141
-1.9479656 0.20451081 -2.6332779 9.2857141
4.3951931 0.17896152 -2.6307902 8.5
4.4064536 0.17865485 -2.5972216 8.5
-6.1605334 0.58124822 -2.4871738 10
-2.4111571 0.55434811 -2.5303364 12
-2.1833582 0.52440399 -2.4829805 12
-1.9453411 0.52020538 -2.6417677 12
4.3956475 0.58726823 -2.5411115 10.8
4.4054065 0.5386759 -2.6147561 10.5
-6.1384435 0.97302604 -2.5340283 11.666667
-4.5880585 1.0296948 -2.6466756 13.010167
4.3941064 0.99391067 -2.6070797 13
4.4055905 0.9970783 -2.6202719 13
-6.1456299 1.4037162 -2.5776856 13.444444
-5.97019 1.3929927 -2.6982181 13.5
-4.5894976 1.3312644 -2.6395314 14.565722
4.3949423 1.3697677 -2.609623 15
4.4036312 1.3159338 -2.6719139 14.666667
-6.1217155 1.780344 -2.5822651 15
-5.9742937 1.7574854 -2.706712 15
-2.5478327 -0.40840733 -2.13463 4
-2.3464227 -0.40775704 -2.3495946 4
-1.3766813 -0.40775126 -2.1720159 3
-1.0276695 -0.40732411 -2.3562138 3
-0.56227762 -0.40781146 -2.020215 2
-0.20331936 -0.40811214 -2.086185 2
0.2283418 -0.40820518 -2.0855529 2
0.50634223 -0.40778407 -2.0353332 2
1.0307258 -0.40901899 -2.366643 3
1.3778027 -0.40840656 -2.1763394 3
2.3460875 -0.40788084 -2.3515697 4
2.5349314 -0.40751889 -2.1396878 4
3.9870622 -0.40712464 -2.3997962 5
4.0954967 -0.40690514 -2.2013288 5
-3.0706854 -0.17123522 -2.2472985 6.2037034
-2.1786723 -0.14961034 -2.3446698 6.166667
-1.9139163 -0.365684 -2.2806823 4
4.3951631 -0.17373745 -2.3278384 6.5
4.515645 -0.19897823 -2.2521687 6.375
5.0605698 -0.11693027 -2.1332614 6.8888888
-6.0805969 0.26334372 -2.1505771 8.666667
-5.8341923 0.10807372 -2.0741282 8.0174999
-5.39504 0.10087393 -2.0732925 8.0345001
-5.1320901 0.09659297 -2.0716403 8.0340004
-3.0699406 0.22213967 -2.2540483 9.166667
-2.1979744 0.25434035 -2.3619127 9.75
4.3933282 0.21599928 -2.283915 8.75
4.4902987 0.13222025 -2.2528777 8.25
5.0769577 0.19234775 -2.1535447 8.5
-6.1629996 0.64739662 -2.1448407 10.333333
-3.0491574 0.52421308 -2.2123168 11.466667
-2.1973584 0.55880851 -2.3587897 12.416667
4.393621 0.6107797 -2.3260274 11
4.4531074 0.57190508 -2.2571309 10.766666
5.0575471 0.57799363 -2.1536841 10.5
-6.1632218 0.92009336 -2.2028983 11.5
4.3943467 1.0081751 -2.2856674 13.25
4.4993639 1.0687963 -2.2541637 13.5
5.0550165 0.96925372 -2.1528172 12.5
-6.1606388 1.3905849 -2.1923785 13.5
4.3948402 1.328073 -2.2917004 15
4.6470385 1.3359863 -2.260576 14.75
5.0765729 1.375531 -2.1494019 14.5
-6.1631188 1.7530996 -2.1932561 15
-4.3471766 -0.40750194 -1.6708753 5
-2.8434701 -0.40741482 -1.7094625 4
-2.7352984 -0.40747625 -1.8779339 4
-2.0010264 -0.40718901 -1.6140954 3
-1.8111411 -0.40747526 -1.8223752 3
-1.2906606 -0.40754506 -1.6515267 2
-1.0255365 -0.40742701 -1.8240172 2
-0.62711692 -0.40746263 -1.765586 1.3333334
-0.20122951 -0.40766537 -1.7501824 1
0.21389589 -0.40668482 -1.7464515 1
0.6190666 -0.40690166 -1.7646772 1.3333334
1.0356474 -0.4076626 -1.8193647 2
1.2916046 -0.40807617 -1.6544158 2
1.8136925 -0.40821317 -1.8266172 3
2.0035398 -0.40895158 -1.6289279 3
2.7157257 -0.40737635 -1.9044424 4
2.8644347 -0.40831676 -1.6882758 4
4.2821636 -0.406414 -1.7972217 5
-6.0783496 -0.11005544 -1.6730455 7
-5.6952176 -0.10395639 -1.7401283 7
-5.3737545 -0.098607868 -1.7409248 7
-3.0333622 -0.18591844 -1.8299291 6
5.1345468 -0.19028044 -1.8111774 6.5
-6.0816317 0.22161967 -1.8031949 8.5
-3.0347862 0.1860082 -1.829336 9
5.1344395 0.19003654 -1.7990636 8.5
-6.1595001 0.67492354 -1.8065537 10.5
-3.0360494 0.49842098 -1.826898 11.5
5.1350923 0.57224905 -1.8017029 10.5
-6.1233625 1.0138599 -1.8631748 12
5.1329784 0.95963514 -1.8010546 12.5
-6.0749092 1.35043 -1.8511882 13.5
5.1344461 1.3573626 -1.8015206 14.5
-6.1287785 1.7166975 -1.8647603 15
-4.4631319 -0.40838236 -1.3637885 5
-4.3962655 -0.40657911 -1.5061595 5
-2.9979069 -0.40691802 -1.4078172 4
-2.1653085 -0.40777513 -1.3867998 3
-1.6616181 -0.40720406 -1.2742552 2
-1.4198294 -0.4071309 -1.4208081 1.75
-0.98473555 -0.40748933 -1.3858578 0.75
-0.63022625 -0.40656024 -1.4435246 0.25
-0.19943318 -0.40801096 -1.5047888 0
0.21725485 -0.40727648 -1.5012239 0
0.63923395 -0.40663573 -1.4402993 0.25
0.98193896 -0.40762228 -1.3889202 0.75
1.4187449 -0.40874025 -1.4335529 1.75
1.670145 -0.40680248 -1.2603469 2
2.1720328 -0.40763342 -1.3754286 3
3.0068498 -0.40762404 -1.4037325 4
4.3712573 -0.40721539 -1.5991883 5
4.4381547 -0.40670913 -1.3791171 5
-6.082561 -0.21774679 -1.3728426 6.5
-5.8923445 -0.31815305 -1.4600142 6
-5.4319873 -0.29482603 -1.4625335 6
-5.0924091 -0.27768785 -1.4630911 6
-4.6523294 -0.25560856 -1.4630606 6
-3.6083944 -0.13675882 -1.5133991 6.5
-3.4247608 -0.26213822 -1.5110238 5.5
-3.1890736 -0.18716267 -1.5944455 6
5.1278257 -0.23295173 -1.4601915 6.25
-6.0818281 0.21796136 -1.3889216 8.5
-3.6153219 0.20560651 -1.5163046 9
-3.4596968 0.19798732 -1.5126581 9
-3.1886334 0.18694216 -1.5931152 9
5.1373534 0.18602853 -1.3967392 8.5
-6.1617312 0.66449171 -1.4017658 10.5
-3.620147 0.48200309 -1.5183284 11
-3.3941994 0.55594146 -1.5167284 11.75
-3.1964331 0.50213414 -1.5936657 11.5
5.1347928 0.55956262 -1.3960432 10.5
-6.0640202 1.0577897 -1.3388238 12.333333
5.135179 0.93892479 -1.3985986 12.5
-6.0699339 1.3246505 -1.3989428 13.5
5.1351781 1.3274734 -1.396121 14.5
-6.0685105 1.6688068 -1.3965642 15
-4.5518875 -0.40762073 -0.98710865 5
-3.2121089 -0.40940753 -0.89385939 4
-3.1592197 -0.40856785 -1.041005 4
-2.4193239 -0.40783429 -0.88063753 3
-2.3567195 -0.40718907 -1.0239613 3
-1.822601 -0.40758064 -1.0296444 2
-1.3867353 -0.40759924 -0.98442233 0.75
-1.0722487 -0.40760037 -1.0729322 0
1.0729665 -0.40819275 -1.0743688 0
1.3863212 -0.40782788 -0.98637152 0.75
1.8240261 -0.4081203 -1.0329747 2
2.3497372 -0.40759161 -1.0468017 3
2.4198737 -0.40798241 -0.88238251 3
3.1532547 -0.4073379 -1.0263935 4
3.2206187 -0.4085052 -0.83438617 4
4.5474715 -0.40725681 -0.98885578 5
-6.0810146 -0.21542723 -1.0112929 6.5
5.1341543 -0.18272148 -0.99878007 6.5
-6.0822759 0.21538211 -1.0048914 8.5
5.1367049 0.1828544 -0.99932241 8.5
-6.161623 0.65637708 -1.0007442 10.5
5.1339064 0.54996175 -0.99879235 10.5
-6.0693502 1.084941 -0.9940899 12.5
5.1312752 0.97767586 -0.96206599 12.8
-6.0708966 1.3477528 -1.0562805 13.666667
5.1361165 1.3241706 -0.98991674 14.6
-6.0681863 1.6483006 -1.0026088 15
-4.6185551 -0.40744585 -0.5868029 5
-3.2629936 -0.4077757 -0.60359526 4
-2.4960194 -0.40742141 -0.61098891 3
-2.0209973 -0.40800789 -0.56017989 2
-1.7630415 -0.40790272 -0.63698173 1.3333334
-1.44317 -0.40752605 -0.64113861 0.25
1.4389277 -0.40597439 -0.63620389 0.25
1.7636051 -0.40704659 -0.62608409 1.3333334
2.0243862 -0.4085938 -0.56257826 2
2.49617 -0.40747011 -0.61241043 3
3.268117 -0.40805396 -0.59251803 4
4.6118045 -0.40722156 -0.62150407 5
-6.0792265 -0.2133566 -0.5913555 6.5
5.0843086 -0.22395875 -0.66553795 6.25
-6.0831532 0.21352307 -0.59629983 8.5
5.0909176 0.17913763 -0.60165077 8.5
-6.1601691 0.65082669 -0.59820306 10.5
5.089994 0.53896809 -0.60156554 10.5
-6.0752983 1.0763553 -0.57020706 12.5
5.1041651 1.0018412 -0.70315814 13
-6.1389136 1.3849926 -0.52491331 13.833334
5.0960312 1.3465114 -0.70612031 14.833334
-6.1363001 1.6507826 -0.53912747 15
-4.6479259 -0.40710673 -0.20193337 5
-3.3150787 -0.40800065 -0.20336877 4
-2.5621309 -0.40761977 -0.21273306 3
-2.0825448 -0.40720752 -0.20076691 2
-1.7491503 -0.40752381 -0.20704964 1
-1.5005041 -0.40693301 -0.20478979 0
1.5089506 -0.40913552 -0.19977272 0
1.7523922 -0.40820938 -0.20122947 1
2.0836751 -0.40764293 -0.20208937 2
2.5632014 -0.40773198 -0.20319694 3
3.3106542 -0.40741143 -0.19109449 4
4.6501184 -0.40726292 -0.18508978 5
-6.0813379 -0.21253929 -0.19774139 6.5
5.0876784 -0.17789254 -0.20246798 6.5
-6.0831409 0.21261637 -0.20810598 8.5
5.0897622 0.17800485 -0.20260882 8.5
-6.1589723 0.64799261 -0.20550181 10.5
5.0907636 0.53579086 -0.2026214 10.5
-6.1608095 1.0874026 -0.20899394 12.5
5.0874572 0.99070907 -0.20250548 13
-6.1655722 1.3494482 -0.22761166 13.666667
5.0891557 1.3650192 -0.2025294 15
-6.15978 1.6516819 -0.20554779 15
-4.6536694 -0.40758926 0.1842625 5
-3.3100016 -0.40718397 0.17545603 4
-2.5577786 -0.40689293 0.20230056 3
-2.0851769 -0.40767607 0.19258121 2
-1.7502637 -0.40773693 0.20028888 1
-1.5009092 -0.40698916 0.19809698 0
1.5007793 -0.40699846 0.20436858 0
1.7461894 -0.40681469 0.20670782 1
2.082566 -0.40748233 0.21007702 2
2.5678174 -0.4082858 0.20241053 3
3.3130524 -0.40773925 0.20349289 4
4.6497016 -0.40725127 0.20244768 5
-6.0834117 -0.21262611 0.17463912 6.5
-3.7586627 -0.33015862 0.33547708 5
-2.9652128 -0.14736253 0.28594381 6.083333
5.0876946 -0.17790619 0.20450687 6.5
-6.0812445 0.26573712 0.21529236 8.75
-3.6560502 0.32062516 0.25252092 10.047
-3.445179 0.060273357 0.23794781 8.0469999
-2.9938669 0.21696626 0.25628549 9.5741873
5.0878 0.17790554 0.20455402 8.5
-6.1651583 0.5941543 0.21829432 10.25
-3.4202528 0.60213178 0.23622446 12.547
-2.95397 0.5948832 0.27923861 13.166667
5.0886111 0.53556055 0.20454948 10.5
-6.1572104 1.0867599 0.19959486 12.5
5.0902653 0.991328 0.20463425 13
-6.1670012 1.3120071 0.2054102 13.5
5.0892763 1.3650708 0.20462146 15
-6.1595154 1.6516163 0.20260946 15
-3.2648063 -0.40803623 0.60531336 4
-2.5026629 -0.4085477 0.61355793 3
-2.0206275 -0.40743828 0.55153292 2
-1.7641469 -0.40765977 0.63140577 1.3333334
-1.44318 -0.40765637 0.64138258 0.25
1.4420496 -0.40728936 0.64048707 0.25
1.772103 -0.40848774 0.62175125 1.3333334
2.035115 -0.40782714 0.50749004 2
2.5023892 -0.40810657 0.60063106 3
3.2671766 -0.40790883 0.5905903 4
4.6130848 -0.40731382 0.61933422 5
-4.370091 -0.38601413 0.59699553 5
-2.9651382 -0.10578871 0.60057509 6.5
5.0892568 -0.17906347 0.60045898 6.5
-2.965131 0.21202166 0.60024083 9.5
5.0881858 0.1790137 0.60032701 8.5
-2.953495 0.5862655 0.5983749 13
5.0095983 0.59998959 0.62582129 10.888889
5.0897131 0.9976607 0.62085629 13
-6.1609292 1.3129531 0.41487119 13.5
-4.9975529 1.3444371 0.44640338 15.0475
-4.4935889 1.2146958 0.5922116 15.04875
5.0901175 1.3736027 0.59835279 15
-6.1610255 1.654881 0.43042922 15
-3.1561265 -0.4072203 1.0120589 4
-2.423157 -0.40720269 0.85847914 3
-2.3638704 -0.40780351 1.016148 3
-1.8265755 -0.40726009 1.0196978 2
-1.3851824 -0.40732998 0.98434788 0.75
-1.0714012 -0.40656376 1.0669934 0
1.0761888 -0.40786096 1.0696828 0
1.3870542 -0.40767696 0.98518836 0.75
1.8291531 -0.40767506 1.0197787 2
2.3618443 -0.40807599 1.0263394 3
2.4237664 -0.40858054 0.88238531 3
3.1541653 -0.40741032 1.0251604 4
3.2212019 -0.40854195 0.83294052 4
4.5423117 -0.40676054 0.98550189 5
-4.3678117 -0.39196789 0.99047953 5
-2.9660349 -0.10945944 1.0064913 6.5
5.0876532 -0.18117099 1.0005069 6.5
-2.9651432 0.21933205 1.0028107 9.5
5.0888386 0.18119319 1.0007604 8.5
-2.9552672 0.60596108 0.98355621 13
5.0730515 0.56092995 0.9654609 10.6
5.086587 1.0071824 0.96380872 13
-4.4964085 1.2322177 0.95797563 15.051001
5.0913134 1.345781 1.0661924 14.75
-4.3681931 -0.40424463 1.5040506 5
-2.999897 -0.40726039 1.4099936 4
-2.1757045 -0.40692806 1.3600079 3
-1.6748618 -0.40794739 1.2634239 2
-1.4189628 -0.40714711 1.4204397 1.75
-0.98235714 -0.40774834 1.3886098 0.75
-0.63687801 -0.40712282 1.4432374 0.25
-0.20443715 -0.40825692 1.5053893 0
0.19821487 -0.40818512 1.5053753 0
0.65747714 -0.40825397 1.4604433 0.33333334
0.98637414 -0.4080928 1.3878663 0.75
1.4165121 -0.40792999 1.4306012 1.75
1.6636266 -0.40770459 1.2758559 2
2.168201 -0.40831596 1.3886349 3
3.0099614 -0.4079797 1.4036309 4
4.3625889 -0.40635067 1.593842 5
4.4462385 -0.40740108 1.3794404 5
-4.3633914 -0.39823541 1.2951835 5
-2.9715476 -0.14534435 1.4791266 6.25
5.08848 -0.18434533 1.3969641 6.5
-2.9647 0.20405532 1.3806877 9.2857141
5.0896626 0.1844324 1.3972651 8.5
-2.9395432 0.64783138 1.3784177 13.142857
5.0894036 0.55499893 1.3972442 10.5
5.0887856 0.93102431 1.3970205 12.5
-4.4988289 1.2610835 1.3775628 15.0535
5.0870271 1.3330781 1.3606215 14.6
-4.2908692 -0.40729535 1.8014684 5
-2.836822 -0.40655923 1.706853 4
-2.7375193 -0.40681538 1.8641928 4
-1.81962 -0.40722042 1.8114817 3
-1.275359 -0.40738335 1.6624212 2
-1.0365154 -0.40791523 1.8200564 2
-0.63340181 -0.40851462 1.7678925 1.3333334
-0.2064945 -0.40804812 1.751461 1
0.19181941 -0.40843844 1.7548635 1
0.61692196 -0.40772507 1.7695452 1.3333334
1.0217702 -0.40794903 1.8295934 2
1.2773988 -0.40805915 1.6646787 2
1.8208634 -0.4084453 1.8220429 3
2.0046654 -0.40794742 1.617211 3
2.7334893 -0.40722504 1.877018 4
2.8641138 -0.4081848 1.686443 4
4.2803392 -0.40617678 1.7943095 5
-3.7504344 -0.35897875 1.6640174 5
-2.9619312 -0.20854963 1.6954364 5.75
5.086257 -0.23489884 1.7586339 6.25
-2.9815919 0.21168233 1.7455355 9.2651253
5.0920062 0.18875653 1.8033344 8.5
-2.9395249 0.58630395 1.7294514 12.390125
5.0904593 0.56777972 1.800442 10.5
5.0883541 0.9523381 1.8020848 12.5
-4.4963574 1.3000284 1.8188521 15.056
5.0893455 1.3468217 1.8024219 14.5
-4.0913572 -0.40761989 2.2246983 5
-2.5340939 -0.40738347 2.1385722 4
-2.3399029 -0.4067772 2.3446825 4
-1.6222652 -0.40840882 2.0041931 3
-1.3738395 -0.40714848 2.1691394 3
-1.015994 -0.40782294 2.3640571 3
-0.56968087 -0.40877226 2.022809 2
-0.20900981 -0.4073244 2.0817506 2
0.20067212 -0.40725279 2.0816169 2
0.50767434 -0.40819439 2.0369642 2
1.0302124 -0.40842235 2.3625495 3
1.3695374 -0.40752789 2.1753886 3
1.6145349 -0.41059777 2.0281174 3
2.3439434 -0.40735263 2.3474154 4
2.5429265 -0.40763456 2.1307261 4
3.9815912 -0.40646929 2.3941526 5
4.1009202 -0.40735179 2.201803 5
5.1058378 -0.14542812 2.116786 6.75
5.1329775 0.19510093 2.2024453 8.5
5.1438856 0.53660142 2.1329947 10.25
-4.4976811 1.165625 2.2926195 14.058499
5.1387482 0.93216085 2.1420896 12.25
-4.4994836 1.347856 2.2468174 15.058249
5.1197295 1.3791393 2.092335 14.5
-3.8422945 -0.40747163 2.6271989 5
-2.1421797 -0.40796414 2.5372236 4
-1.9009364 -0.4071655 2.7157838 4
-0.85976905 -0.40819663 2.429409 3
-0.59947491 -0.40800282 2.5018885 3
-0.20095636 -0.40749222 2.5627749 3
0.19064859 -0.40750062 2.5630708 3
0.60132253 -0.40817705 2.5025516 3
0.88252532 -0.40897942 2.4263861 3
1.8768719 -0.40705445 2.7319934 4
2.1350594 -0.40785694 2.5416653 4
3.8160014 -0.40686139 2.6549814 5
-4.3673358 -0.17830789 2.6431231 6.5
5.1362729 -0.20099959 2.5971992 6.5
-4.3595781 0.14939918 2.6737747 8.333333
5.1365962 0.20115148 2.6004026 8.5
-4.499249 0.55519634 2.7691789 10.5
5.137569 0.60561675 2.6035047 10.5
-4.4954119 1.0610998 2.6476579 13.279875
5.1352477 1.015259 2.5969181 12.5
-4.4715366 1.3271337 2.7005959 14.639937
5.1345477 1.4356017 2.5993323 14.5
-3.6380327 -0.40687349 2.8964267 5
-3.490617 -0.40785396 3.0885417 5
-1.6868025 -0.40831068 2.864965 4
-1.4169865 -0.40783125 3.0017509 4
-1.0092434 -0.4075301 3.1596537 4
1.0265155 -0.40770501 3.156208 4
1.4057993 -0.40826273 3.0114648 4
1.6845442 -0.40757567 2.8594368 4
3.5064285 -0.40660325 3.0489407 5
3.6420922 -0.40668312 2.8881369 5
-4.3643074 -0.2330059 3.0560937 6.25
4.3625407 -0.18582185 3.0115345 6.5
4.4911528 -0.23268092 2.8992839 6.25
5.0581789 -0.15182406 2.8962791 6.75
-4.3670301 0.18516782 2.9997509 8.5
4.3677745 0.1840111 2.945837 8.5
4.597652 0.18991372 2.9014931 8.5
5.0874 0.20450799 2.8961833 8.5
-4.4971051 0.56883436 3.0054784 10.5
4.364882 0.5536533 2.9439151 10.5
4.5957322 0.57141846 2.9002697 10.5
5.086247 0.61540419 2.8955555 10.5
-4.4955635 0.95328295 2.99823 12.5
4.3592319 0.92821604 2.9467649 12.5
4.5980358 0.95905548 2.9017241 12.5
5.0764022 1.0310463 2.8972046 12.5
-4.4089265 1.3291918 2.9923768 14.5
-4.3981109 1.4251385 2.9900062 15
4.3623962 1.3130735 2.9466286 14.5
4.5934191 1.3552368 2.9016399 14.5
5.0819516 1.4587148 2.8939857 14.5
-3.2944431 -0.40807104 3.3010404 5
-3.0849338 -0.40756568 3.488914 5
-0.80301076 -0.40714735 3.2171507 4
-0.59007019 -0.40835342 3.2708337 4
-0.20176031 -0.40832046 3.3178005 4
0.20193145 -0.40751815 3.3101194 4
0.6047253 -0.40716785 3.2589843 4
0.83411866 -0.40871546 3.2223377 4
3.0749996 -0.40609881 3.475467 5
3.2859166 -0.40689364 3.2906992 5
-4.3695202 -0.19316649 3.3872919 6.5
4.355691 -0.19344944 3.409893 6.5
-4.3652844 0.19328611 3.3984735 8.5
4.3543253 0.19297618 3.399461 8.5
-4.4953899 0.59271282 3.4024079 10.5
4.343502 0.5858047 3.4892719 10.5
-4.4959235 0.99407917 3.3967941 12.5
4.3319168 0.92924994 3.4727564 12.25
-4.4097652 1.3881986 3.3947728 14.5
-4.3943081 1.4704361 3.287009 15
4.3541727 1.3780192 3.3993366 14.5
-2.869931 -0.40762192 3.6695948 5
-2.621242 -0.40695965 3.8407848 5
-2.392792 -0.40742129 3.9949648 5
2.3946261 -0.40753645 3.9954987 5
2.640667 -0.40644896 3.8208282 5
2.8649518 -0.40677997 3.6613998 5
-4.3653498 -0.20258625 3.8089955 6.5
4.3221684 -0.20091213 3.794719 6.5
-4.3658438 0.20209156 3.7932487 8.5
4.3202171 0.20091586 3.7964635 8.5
-4.4956961 0.61898679 3.7995563 10.5
4.3218422 0.60538077 3.8043072 10.5
-4.4910975 1.0383806 3.8055027 12.5
4.3210273 1.0147235 3.7971845 12.5
-4.4074454 1.450352 3.7918725 14.5
-4.3957472 1.343256 3.8115516 14
4.3192759 1.4342796 3.7956443 14.5
-2.2076924 -0.40822563 4.1089821 5
-1.8012916 -0.40755588 4.2943611 5
-1.553661 -0.40742639 4.3898163 5
1.5909332 -0.40723428 4.3743424 5
1.8007593 -0.40718773 4.2900891 5
2.2038136 -0.40730801 4.0992484 5
-4.3657465 -0.158878 4.2281542 6.75
4.3224921 -0.21088846 4.2066183 6.5
-4.3672247 0.21153811 4.1923866 8.5334997
4.320128 0.21035576 4.1946893 8.5
-4.4971328 0.6466192 4.1941857 10.5
4.3212299 0.63330376 4.1957717 10.5
-4.4528766 1.0792288 4.2007117 12.5
-4.3949709 1.1634508 4.0630322 13
4.3187432 1.0618713 4.1933889 12.5
-4.4088335 1.3553967 4.2379608 13.75
-4.3952298 1.4891926 4.042819 14.5
4.3183966 1.442331 4.1776013 14.25
-4.409596 1.6363838 4.2242222 15
-4.3957448 1.6295648 4.2026186 15
4.3255758 1.624204 4.2461572 15
-1.3595885 -0.40707782 4.4487014 5
-0.9869839 -0.40750504 4.550416 5
-0.58713543 -0.4074609 4.618557 5
-0.20230645 -0.40773892 4.6550555 5
0.18411778 -0.40779498 4.6559215 5
0.62404782 -0.40802154 4.6203814 5
0.98976523 -0.40809965 4.5568018 5
1.3842558 -0.40781963 4.4495239 5
-4.3645096 -0.16638659 4.6189556 6.75
4.3183546 -0.22013505 4.5956287 6.5
-4.3690653 0.21982217 4.5235558 8.5171251
4.3190622 0.22020929 4.5962067 8.5
-4.4979434 0.67599851 4.5959082 10.5
4.3194594 0.66382903 4.6042747 10.5
-4.4976525 0.94668782 4.6463714 11.666667
4.3191805 0.99994814 4.6040683 12
-4.4068446 1.355093 4.6036596 13.5
-4.3957543 1.3558939 4.6249461 13.5
4.3188901 1.3411659 4.5959854 13.5
-4.4092822 1.708441 4.6047335 15
-4.3960147 1.708425 4.6176023 15
4.3214993 1.689559 4.5910468 15
-4.3662739 -0.23053148 4.9519553 6.5
4.31778 -0.23200989 5.0317736 6.5
-4.3668189 0.22936524 4.9019661 8.5
4.3191524 0.23078907 4.9987593 8.5
-4.4986548 0.59245884 5.0607796 10
4.319469 0.6505903 4.9437909 10.333333
-4.4983459 0.94615197 5.0053248 11.5
4.3213844 0.93021733 5.0117993 11.5
-4.4034967 1.4813209 5.020875 13.75
4.3221316 1.4057444 5.0022116 13.5
-4.4044008 1.7835548 4.9902787 15
-4.3956766 1.7782185 4.9715848 15
4.3153052 1.7664348 4.9828353 15
-4.3680019 -0.1811721 5.3210306 6.75
4.3266354 -0.18215761 5.4340181 6.75
-4.3662424 0.24147843 5.4039984 8.5176249
4.3225331 0.24227273 5.4167342 8.5
-4.497745 0.61483341 5.3991113 10
4.3203526 0.60459924 5.3934031 10
-4.4959731 0.98759544 5.3969188 11.5
4.3260074 0.91322219 5.4215965 11.25
-4.4962769 1.3912957 5.2879686 13.166666
4.3454576 1.4213521 5.4740915 13.25
-4.4973898 1.8020759 5.3235073 14.75
4.3473568 1.7610189 5.4875474 14.555556
-4.3658848 -0.37961367 5.7797227 6
4.3652668 -0.21088113 5.7866268 6.6666665
-4.4978733 0.39023575 5.9339828 9
-4.357934 0.12622204 5.7704482 8.0714998
4.3599014 0.25308734 5.7850494 8.5
-4.4963264 0.64284074 5.8108091 10
4.3619823 0.63409978 5.7877831 10
-4.4962416 1.0329312 5.8107476 11.5
4.356102 0.95649517 5.81355 11.25
-4.4938707 1.4193351 5.7545662 13
4.3606763 1.4044544 5.7606435 13
-4.4951973 1.8309668 5.804215 14.5
4.3614388 1.8074425 5.7870398 14.5
-4.5000434 2.0094442 5.9990382 15
4.454371 -0.4073078 6.3687744 6
-4.36549 -0.39469549 6.1364913 6
4.3649263 -0.19543338 6.0715923 6.75
-4.4986591 0.39767477 6.1105504 9
-4.3663807 0.13150561 6.1391611 8.0722504
4.3598156 0.2614527 6.0805168 8.5
-4.4957042 0.58186841 6.2330084 9.666667
4.3625879 0.65425104 6.0736346 10
-4.4945502 1.0240042 6.1444759 11.333333
4.3617177 1.0498277 6.0616741 11.5
-4.4921656 1.4078131 6.1279869 12.75
4.3618441 1.4516636 6.0619173 13
-4.4965067 1.7788804 6.2565675 14
4.3597136 1.8569026 6.0375385 14.5
-4.4978881 2.0534599 6.2043781 15
4.3602629 2.0049982 6.0810471 15
-4.2045898 -0.40690118 6.5261121 6
-3.8482795 -0.40687087 6.7417064 6
3.9319248 -0.40656158 6.6870961 6
4.2105832 -0.40731376 6.5317497 6
-4.3725424 0.13828753 6.6060405 8.0732498
-4.4973397 0.55860317 6.5987144 9.5
-4.4964514 0.98034334 6.5973506 11
-4.4959059 1.4080689 6.5966349 12.5
-4.4962311 1.8432343 6.5971003 14
-4.4976897 2.1399908 6.599287 15
-3.649544 -0.40689936 6.8527961 6
-3.4031041 -0.40705341 6.9807515 6
-3.0088983 -0.40690842 7.1566577 6
3.0116093 -0.40699151 7.1573238 6
3.4053698 -0.40708882 6.9804993 6
3.7137067 -0.40745252 6.8300557 6
-4.3635783 0.1434716 6.9653492 8.0740004
-4.4965634 0.58863908 7.1107459 9.5
-4.5008955 1.0306687 7.0850058 11
-4.4941854 1.3735459 7.0508833 12.166666
-4.4961553 1.7894349 7.1142821 13.5
-4.4988823 2.2429273 7.0584259 15
-2.5869558 -0.40645579 7.3099551 6
-2.1608067 -0.40652952 7.4491715 6
-1.8154982 -0.40655914 7.5418463 6
1.7824496 -0.40722293 7.5621486 6
2.1772096 -0.40688157 7.4512696 6
2.5917647 -0.40687475 7.3168054 6
-4.3599448 0.14813916 7.2811174 8.0745001
-1.6020085 -0.40709323 7.6007595 6
-1.3757651 -0.40639937 7.6307387 6
-0.97825724 -0.40661281 7.695745 6
-0.57703191 -0.40653643 7.734899 6
-0.19387335 -0.40644661 7.7527385 6
0.16361041 -0.4066177 7.7562299 6
0.57974452 -0.40695179 7.7426596 6
0.98092735 -0.40688419 7.7006507 6
1.3801925 -0.40703899 7.6423783 6
-5.4579234 -0.20928958 10.675997 7
-5.5498037 0.21143171 10.766428 8
-5.5537143 0.63525194 10.773981 9
3.3696826 0.58999383 10.741163 9
3.8400564 0.59892553 10.763088 9
4.1963143 0.60587317 10.771651 9
4.5813184 0.61418432 10.78633 9
-5.6014781 1.0626965 10.77787 10
-5.5283055 1.0590768 10.769078 10
-4.9383445 1.038666 10.796045 10
3.0084257 0.97483337 10.727941 10
3.404295 0.98707443 10.755909 10
4.0656023 1.0082417 10.783173 10
4.7447643 1.0314656 10.792679 10
4.8552742 1.0357755 10.7974 10
-5.5542612 1.4884619 10.7751 11
2.9245732 1.364634 10.721691 11
3.3691921 1.3821003 10.739967 11
4.0585442 1.4125378 10.764416 11
4.7630525 1.4476557 10.785206 11
4.9417834 1.4578352 10.795663 11
-5.5555687 1.9204721 10.77762 12
3.0076437 1.7642747 10.724857 12
3.3695261 1.7829654 10.740812 12
4.060606 1.8230121 10.769898 12
4.7467289 1.868075 10.797146 12
4.8513298 1.8735892 10.788755 12
-5.600678 2.3607347 10.776328 13
-5.5337887 2.3553545 10.779707 13
2.925061 2.1607499 10.723692 13
3.3686438 2.1876185 10.738076 13
4.0633755 2.2388558 10.777271 13
-5.5298014 2.7506518 10.553169 14
-5.4750128 3.1823897 10.538972 15
-4.940681 3.1405225 10.627912 15
-4.5964828 3.1096485 10.655618 15
-4.193532 3.0714486 10.667603 15
-3.7923341 3.0383708 10.685625 15
-3.3564894 3.0059936 10.704016 15
-3.0005994 2.9807277 10.711273 15
-2.5930424 2.9584048 10.731368 15
-2.2286406 2.9482965 10.774726 15
-5.7427907 3.2234416 10.570149 15.07575
-5.2663126 -0.2102572 10.833489 7
-4.9438844 -0.20821416 10.855444 7
-4.5187821 -0.20555674 10.874503 7
-4.1623201 -0.2033754 10.882622 7
-3.8599391 -0.20193288 10.905458 7
-3.4345582 -0.19965521 10.909911 7
-3.0219676 -0.19792937 10.92897 7
-2.6345267 -0.19647881 10.94333 7
-2.2154469 -0.19526887 10.965109 7
-1.837196 -0.19427371 10.976996 7
-1.4428374 -0.19336696 10.983203 7
-1.0529383 -0.19290726 11.001139 7
-0.68351215 -0.19287694 11.028522 7
-0.27595133 -0.19266942 11.034354 7
0.23336691 -0.19311595 11.060256 7
0.68740034 -0.19312592 11.0426 7
1.0632426 -0.19421916 11.075693 7
1.4583013 -0.19501831 11.076645 7
1.8646312 -0.19684607 11.121895 7
2.2223825 -0.19561005 10.983734 7
2.6514399 -0.19751789 11.000591 7
3.0507412 -0.19961311 11.021215 7
3.4987087 -0.20213003 11.038658 7
3.8074975 -0.20387068 11.041966 7
4.1265864 -0.20599233 11.056122 7
4.6082845 -0.20948313 11.081086 7
5.0576057 -0.21286632 11.096718 7
5.4055066 -0.21569011 11.112137 7
5.8177404 -0.21936829 11.139762 7
-5.6958756 0.2135323 10.826071 8
-5.3594246 0.21107037 10.839179 8
-4.9469333 0.20783728 10.830134 8
-4.6022315 0.20603545 10.868749 8
-4.1739349 0.20349757 10.884844 8
-3.8066678 0.20154195 10.900053 8
-3.4378002 0.19967712 10.909923 8
-2.9931507 0.19784595 10.931304 8
-2.5961192 0.19635861 10.9449 8
-2.1961079 0.19519086 10.963896 8
-1.800218 0.19426423 10.982021 8
-1.402675 0.19353333 10.997427 8
-0.97799826 0.19292554 11.008544 8
-0.52495366 0.19236189 11.007007 8
-0.20215444 0.19284433 11.045383 8
0.19629258 0.19309075 11.059495 8
0.62499356 0.19303888 11.04089 8
0.99698836 0.19399601 11.068278 8
1.4602841 0.19498998 11.074289 8
1.7969564 0.19658692 11.117219 8
2.1283951 0.19657055 11.057527 8
2.6635163 0.19750494 10.996152 8
3.0505564 0.19960447 11.020063 8
3.3521852 0.20110185 11.021594 8.032917
3.8124938 0.20406428 11.050948 8.0994997
4.1289139 0.2060415 11.057205 8.1002502
4.6070561 0.20936644 11.073261 8.1012497
5.061749 0.2129886 11.101392 8.1022501
5.3074284 0.21493292 11.110176 8
5.8121324 0.21916924 11.129228 8
6.0378709 0.22132082 11.149195 8
-5.6895285 0.64039779 10.813987 9
-5.359551 0.63373739 10.839463 9
-4.9645863 0.6243335 10.828803 9
-4.5999808 0.61830461 10.863509 9
-4.1836076 0.61106747 10.882949 9
-3.8155665 0.60506994 10.895993 9
-3.4010859 0.59937233 10.918407 9
-2.9831004 0.59382993 10.930527 9
-2.5968506 0.58971268 10.947952 9
-2.1949651 0.58574063 10.958266 9
-1.7594118 0.58297706 10.983189 9
-1.3306749 0.57982749 10.982924 9
-0.99792498 0.5793857 11.009604 9
-0.48470879 0.57728088 11.00379 9
-0.20208785 0.57884556 11.042527 9
0.19620866 0.57951725 11.055342 9
0.59687674 0.5796833 11.044436 9
0.99718976 0.58256996 11.07051 9
1.4241307 0.58395147 11.050575 9
1.7971559 0.59029984 11.118513 9
2.1326897 0.5902822 11.058651 9
2.6131749 0.59271383 11.002938 9
3.038182 0.59928024 11.023343 9
3.2747927 0.60328794 11.0356 9
4.7549181 0.61919469 10.815737 9
4.9935617 0.63079357 10.950808 9.0512505
5.383626 0.64720196 11.113544 9
5.8098521 0.65777332 11.124853 9
6.0321069 0.6638574 11.138551 9
-5.6932802 1.0697744 10.821138 10
-5.3588552 1.0578051 10.837974 10
-4.9857545 1.0447729 10.850536 10
-4.6012816 1.0324777 10.866586 10
-4.1851411 1.0204666 10.8868 10
-3.7961471 1.0097928 10.899153 10
-3.410553 1.000401 10.913441 10
-2.9937873 0.9918319 10.933467 10
-2.5968807 0.98448235 10.948277 10
-2.1951177 0.97789162 10.959033 10
-1.7994732 0.97327775 10.977475 10
-1.3699043 0.96969187 10.997908 10
-1.0072209 0.96730775 11.009665 10
-0.4969174 0.96352696 11.001337 10
-0.20198357 0.96593839 11.038257 10
0.19620913 0.96766919 11.058035 10
0.60989529 0.96856546 11.053255 10
0.99700755 0.97231972 11.068116 10
1.3928225 0.97719359 11.081504 10
1.7969207 0.98529983 11.117002 10
2.148212 0.98619419 11.064579 10
2.6286411 0.98952383 11.00007 10
2.8500097 0.9951216 11.011329 10
3.5056341 0.99418938 10.809267 10
3.7764292 1.0021303 10.813452 10
4.201406 1.0163113 10.829566 10
4.6021328 1.0309966 10.848225 10
5.0186501 1.0428101 10.810849 10
5.3112974 1.0603567 10.893967 10
5.8146863 1.0989867 11.134119 10
6.0410705 1.1098757 11.155102 10
-5.6900473 1.5005009 10.814963 11
-5.3556156 1.4836693 10.831497 11
-4.9634285 1.4623895 10.826297 11
-4.6007667 1.4488481 10.865343 11
-4.1842017 1.4318421 10.884419 11
-3.81528 1.4174871 10.895159 11
-3.3607879 1.4025431 10.916447 11
-2.9925623 1.3914007 10.929001 11
-2.5967052 1.3815546 10.947481 11
-2.1956956 1.3727591 10.96186 11
-1.7990721 1.3656181 10.97497 11
-1.4140254 1.3619021 11.000534 11
-1.0449638 1.3573723 11.004721 11
-0.49693918 1.3521502 11.000565 11
-0.20213823 1.356267 11.043447 11
0.19634466 1.3585919 11.062381 11
0.59703851 1.3584675 11.04729 11
0.9973467 1.3650563 11.071942 11
1.392745 1.37133 11.080734 11
1.707772 1.378371 11.094513 11
2.1288264 1.3766668 11.007299 11
2.6216955 1.3887162 11.001583 11
2.8473864 1.3953052 11.001233 11
3.5254087 1.3959293 10.808392 11
3.736305 1.4049397 10.814381 11
4.2151723 1.4268643 10.828804 11
4.6319847 1.4463545 10.830198 11
4.9887872 1.4618207 10.809261 11
5.3129635 1.4886074 10.897402 11
5.8129888 1.5418983 11.130825 11
6.0350533 1.5560838 11.143992 11
-5.6941791 1.9369667 10.822882 12
-5.3780961 1.9153748 10.831151 12
-4.94489 1.8850652 10.825544 12
-4.6014667 1.8691963 10.86692 12
-4.1844888 1.8471308 10.885287 12
-3.8155799 1.8286057 10.895965 12
-3.3996508 1.8106365 10.913876 12
-3.0343747 1.7961034 10.925917 12
-2.5970194 1.7823367 10.948823 12
-2.1961212 1.7711339 10.964099 12
-1.7996776 1.7621818 10.97884 12
-1.3716172 1.7549953 10.994672 12
-1.0502288 1.7511567 11.00568 12
-0.49683285 1.7438457 10.998403 12
-0.20212819 1.7492546 11.041905 12
0.19627041 1.7520498 11.059554 12
0.59671456 1.7513041 11.040777 12
0.9970783 1.7603757 11.069046 12
1.3926299 1.7687632 11.079695 12
1.7018232 1.7766844 11.087044 12
2.0942516 1.7861784 11.080399 12
2.6204603 1.7910079 10.999532 12
2.8498642 1.8014255 11.010832 12
3.5373025 1.8020959 10.814039 12
3.7921476 1.8159236 10.819368 12
4.2020159 1.8401055 10.830941 12
4.5715585 1.8632625 10.839138 12
5.0094299 1.8872006 10.810596 12
5.3106952 1.9193857 10.892722 12
5.7998815 1.9876814 11.128719 12
-5.6919427 2.3762467 10.818641 13
-5.3574739 2.3496058 10.835222 13
-4.9623089 2.3145862 10.823856 13
-4.601831 2.2942069 10.867887 13
-4.1728158 2.2655151 10.881895 13
-3.7951939 2.2429521 10.896329 13
-3.398638 2.2208853 10.907681 13
-2.9648907 2.2026148 10.936054 13
-2.5960658 2.1865511 10.944532 13
-2.1946323 2.1721697 10.956592 13
-1.7995148 2.1623673 10.977289 13
-1.3934112 2.1551077 10.998243 13
-1.0224854 2.1488924 11.007152 13
-0.48470771 2.1411021 11.003685 13
-0.20209575 2.1471064 11.04346 13
0.19620171 2.1497827 11.057226 13
0.6109671 2.1554403 11.071275 13
0.99896455 2.1645033 11.089793 13
1.4615953 2.1734135 11.084713 13
1.7967581 2.1888397 11.115614 13
2.1185303 2.1888084 11.058661 13
2.6208744 2.1981688 11.000088 13
2.8510807 2.2117767 11.015536 13
3.5151439 2.2091472 10.807695 13
3.790638 2.2277491 10.815121 13
4.2168064 2.2597282 10.832924 13
4.6418061 2.2930789 10.844885 13
4.908164 2.3195722 10.876845 13
5.2669768 2.3899624 11.109934 13
5.9797392 2.0012529 11.13081 12
6.0319304 2.0062108 11.138225 12
-5.3470507 2.7899711 10.837109 14
-4.9967575 2.7580633 10.850709 14
-4.6009927 2.7243347 10.865767 14
-4.1737242 2.6913562 10.884208 14
-3.8065791 2.6655564 10.899684 14
-3.4117539 2.6408181 10.917282 14
-2.9438825 2.6081343 10.905855 14
-2.5889325 2.5898824 10.914555 14
-2.190017 2.5745015 10.933603 14
-1.7953868 2.5624163 10.952258 14
-1.402922 2.5517955 10.962868 14
-1.004714 2.5461347 10.981948 14
-0.60010463 2.5444179 11.00412 14
-0.20206851 2.5495689 11.040954 14
0.19628774 2.5538018 11.059287 14
0.61003786 2.5565093 11.055986 14
0.99659169 2.5647218 11.063532 14
1.394034 2.5804956 11.089423 14
1.7977517 2.6013 11.12241 14
2.128602 2.6011078 11.06301 14
2.569294 2.6064403 10.992948 14
3.0299044 2.6376331 11.015201 14.032666
3.4996579 2.6730208 11.035956 14.09875
3.8091757 2.6965601 11.04133 14.0995
4.1295853 2.7254689 11.058858 14.10025
4.6123266 2.7721934 11.085908 14.10125
5.4197516 2.4041665 11.117445 13
5.8111253 2.4401956 11.127264 13
6.0346417 2.4632659 11.143231 13
-5.4903445 2.8030274 10.828758 14
-2.0518963 2.9477987 10.808155 15
-1.7888709 2.948463 10.856716 15
-1.3966663 2.9487414 10.915093 15
-1.0018225 2.9470115 10.951967 15
-0.59915328 2.9468653 10.980817 15
-0.19829056 2.9481308 11.000212 15
0.18131106 2.9475005 10.998141 15
0.6057899 2.9465103 10.979179 15
1.0049589 2.9474404 10.953298 15
1.4029325 2.9478345 10.910897 15
1.8010079 2.9630706 10.909985 15
2.2054441 2.9861212 10.923388 15
2.6364682 3.0131288 10.930969 15
3.0298946 3.06125 11.015098 15.032666
3.4958537 3.0989513 11.023866 15.09875
3.8089733 3.1295016 11.040745 15.0995
4.1283836 3.162313 11.055695 15.10025
5.0361195 2.8137159 11.098061 14.034
5.382328 2.8503883 11.110965 14
5.8109479 2.8981636 11.126918 14
6.0273752 2.9221311 11.129812 14
4.6091499 3.2152305 11.078262 15.10125
5.0359077 3.2655089 11.097614 15.034
5.3817248 3.3078003 11.109584 15
5.8102522 3.3632596 11.125627 15
6.0391898 3.3981175 11.151629 15
6.2442203 0.22747773 11.438482 8
6.2484837 0.68344349 11.446293 9
6.2474914 1.1407441 11.444473 10
6.2467966 1.6007788 11.443202 11
6.2403178 2.0627615 11.431333 12
6.2445002 2.5332594 11.438995 13
6.2520571 3.0124271 11.452837 14
6.2442822 3.4919212 11.438596 15
12.611937 -0.39358154 18.692003 7
12.998617 -0.39586958 18.585386 7
12.347312 0.39219236 18.771162 8
12.592322 0.39348027 18.696451 8
12.993686 0.39574087 18.578089 8
12.309876 1.1769412 18.782642 9
12.591158 1.1812699 18.694712 9
12.977242 1.1880885 18.587704 9
12.34454 1.9652704 18.766939 10
12.594295 1.9724768 18.699377 10
12.993382 1.9834553 18.5777 10
11.054037 -0.38618511 19.165852 7
11.411476 -0.38746607 19.040812 7
11.863974 -0.3898254 18.921942 7
12.231546 -0.39149171 18.800428 7
11.027626 0.38584575 19.156921 8
11.437911 0.38766342 19.036381 8
11.822495 0.38952607 18.926035 8
12.157743 0.39116892 18.824574 8
11.048537 1.1589658 19.156178 9
11.437416 1.1638649 19.035574 9
11.824416 1.1696981 18.929134 9
12.08481 1.1734923 18.850107 9
11.027462 1.9338667 19.156553 10
11.435845 1.9426624 19.032957 10
11.840611 1.9527224 18.919634 10
12.178967 1.9614632 18.822931 10
10.683993 -0.38448569 19.263315 7
10.682314 0.38444632 19.260159 8
10.827009 0.38500819 19.216248 8
10.680833 1.1540983 19.257557 9
10.866106 1.1566753 19.210203 9
10.680267 1.9265245 19.256554 10
10.830567 1.9303378 19.222563 10
-11.630152 -0.40650812 20.177307 7
-11.289048 -0.40646309 20.36718 7
-10.954062 -0.40676019 20.568588 7
-14.543829 0.52378374 26.246235 8.0754995
-13.872009 0.51524884 26.054733 8.0760002
-14.544937 1.5727152 26.248228 9.0754995
-13.869978 1.5467428 26.050913 9.0760002
-15.230392 0.53247565 26.430204 8.0749998
-15.228124 1.5984548 26.426266 9.0749998
-15.934773 1.625569 26.611158 9.0745001
